Latitude(degree)	Longitude(degree)	Depth(km)
-16.51507734 119.26393038 1262.57 
-16.51507734 119.71308802 1393.01 
-16.51507734 120.16224566 1535.99 
-16.51507734 120.61140331 1680.03 
-16.51507734 121.06056095 1812.74 
-16.51507734 121.50971859 1923.56 
-16.51507734 121.95887623 2006.39 
-16.51507734 122.40803388 2060.11 
-16.51507734 122.85719152 2087.85 
-16.51507734 146.21338890 970.15 
-16.51507734 146.66254655 945.75 
-16.51507734 147.11170419 931.31 
-16.51507734 147.56086183 925.86 
-16.51507734 148.01001947 927.67 
-16.51507734 148.45917711 934.81 
-16.51507734 152.50159589 1034.90 
-16.51507734 152.95075354 1082.69 
-16.51507734 153.39991118 1155.32 
-16.51507734 153.84906882 1255.19 
-16.06591970 -68.93312164 1529.81 
-16.06591970 -68.48396400 1610.32 
-16.06591970 -38.39040198 1841.51 
-16.06591970 -37.94124434 1681.61 
-16.06591970 -37.49208670 1543.56 
-16.06591970 -37.04292906 1423.47 
-16.06591970 -36.59377141 1318.75 
-16.06591970 8.77115043 1236.29 
-16.06591970 9.22030808 1226.82 
-16.06591970 9.66946572 1227.36 
-16.06591970 10.11862336 1241.65 
-16.06591970 10.56778100 1271.76 
-16.06591970 11.01693864 1318.52 
-16.06591970 11.46609629 1381.95 
-16.06591970 40.21218538 1763.71 
-16.06591970 40.66134302 1726.64 
-16.06591970 41.11050066 1689.86 
-16.06591970 41.55965830 1649.20 
-16.06591970 42.00881595 1604.42 
-16.06591970 42.45797359 1558.95 
-16.06591970 42.90713123 1517.73 
-16.06591970 43.35628887 1485.01 
-16.06591970 43.80544651 1462.79 
-16.06591970 44.25460416 1450.67 
-16.06591970 44.70376180 1446.17 
-16.06591970 45.15291944 1445.37 
-16.06591970 45.60207708 1443.42 
-16.06591970 46.05123473 1435.72 
-16.06591970 46.50039237 1419.01 
-16.06591970 46.94955001 1391.84 
-16.06591970 50.09365350 1007.61 
-16.06591970 50.54281115 952.97 
-16.06591970 50.99196879 906.62 
-16.06591970 51.44112643 869.32 
-16.06591970 51.89028407 840.34 
-16.06591970 58.62764870 917.95 
-16.06591970 59.07680634 949.08 
-16.06591970 115.67066924 1208.23 
-16.06591970 116.11982689 1117.97 
-16.06591970 116.56898453 1042.75 
-16.06591970 117.01814217 993.38 
-16.06591970 117.46729981 973.91 
-16.06591970 117.91645745 984.97 
-16.06591970 118.36561510 1026.01 
-16.06591970 118.81477274 1095.98 
-16.06591970 119.26393038 1192.95 
-16.06591970 119.71308802 1313.30 
-16.06591970 120.16224566 1450.85 
-16.06591970 120.61140331 1596.14 
-16.06591970 121.06056095 1736.95 
-16.06591970 121.50971859 1860.87 
-16.06591970 146.21338890 926.26 
-16.06591970 146.66254655 908.05 
-16.06591970 147.11170419 898.60 
-16.06591970 147.56086183 897.36 
-16.06591970 148.01001947 902.93 
-16.06591970 151.15412297 965.40 
-16.06591970 151.60328061 962.58 
-16.06591970 152.05243825 964.49 
-16.06591970 152.50159589 978.31 
-16.06591970 152.95075354 1011.20 
-16.06591970 153.39991118 1069.28 
-16.06591970 153.84906882 1156.59 
-15.61676206 -69.38227928 1509.93 
-15.61676206 -68.93312164 1524.11 
-15.61676206 -68.48396400 1597.60 
-15.61676206 -68.03480636 1723.45 
-15.61676206 -38.39040198 1875.28 
-15.61676206 -37.94124434 1713.32 
-15.61676206 -37.49208670 1571.47 
-15.61676206 -37.04292906 1446.64 
-15.61676206 -36.59377141 1336.78 
-15.61676206 -36.14461377 1240.81 
-15.61676206 8.77115043 1246.99 
-15.61676206 9.22030808 1240.03 
-15.61676206 9.66946572 1244.14 
-15.61676206 10.11862336 1263.61 
-15.61676206 10.56778100 1300.64 
-15.61676206 11.01693864 1355.81 
-15.61676206 11.46609629 1428.54 
-15.61676206 40.66134302 1675.10 
-15.61676206 41.11050066 1615.45 
-15.61676206 41.55965830 1556.87 
-15.61676206 42.00881595 1500.17 
-15.61676206 42.45797359 1448.45 
-15.61676206 42.90713123 1405.37 
-15.61676206 43.35628887 1373.74 
-15.61676206 43.80544651 1354.40 
-15.61676206 44.25460416 1346.42 
-15.61676206 44.70376180 1347.23 
-15.61676206 45.15291944 1353.17 
-15.61676206 45.60207708 1359.80 
-15.61676206 46.05123473 1362.82 
-15.61676206 46.50039237 1358.74 
-15.61676206 46.94955001 1345.40 
-15.61676206 50.54281115 962.96 
-15.61676206 50.99196879 915.50 
-15.61676206 51.44112643 876.35 
-15.61676206 51.89028407 845.09 
-15.61676206 115.67066924 1173.90 
-15.61676206 116.11982689 1100.27 
-15.61676206 116.56898453 1036.31 
-15.61676206 117.01814217 991.93 
-15.61676206 117.46729981 971.81 
-15.61676206 117.91645745 977.46 
-15.61676206 118.36561510 1009.08 
-15.61676206 118.81477274 1066.43 
-15.61676206 119.26393038 1148.78 
-15.61676206 119.71308802 1254.40 
-15.61676206 120.16224566 1379.60 
-15.61676206 120.61140331 1517.47 
-15.61676206 121.06056095 1657.40 
-15.61676206 121.50971859 1786.82 
-15.61676206 121.95887623 1894.87 
-15.61676206 122.40803388 1975.54 
-15.61676206 122.85719152 2028.62 
-15.61676206 140.37433956 1260.87 
-15.61676206 145.76423126 912.21 
-15.61676206 146.21338890 893.01 
-15.61676206 146.66254655 880.02 
-15.61676206 147.11170419 874.55 
-15.61676206 147.56086183 876.68 
-15.61676206 148.01001947 885.57 
-15.61676206 150.25580768 966.95 
-15.61676206 150.70496533 970.26 
-15.61676206 151.15412297 964.22 
-15.61676206 151.60328061 952.17 
-15.61676206 152.05243825 941.01 
-15.61676206 152.50159589 939.24 
-15.61676206 152.95075354 955.00 
-15.61676206 153.39991118 994.97 
-15.61676206 153.84906882 1063.62 
-15.16760441 -69.83143693 1605.60 
-15.16760441 -69.38227928 1540.44 
-15.16760441 -68.93312164 1540.70 
-15.16760441 -68.48396400 1597.83 
-15.16760441 -68.03480636 1703.47 
-15.16760441 -38.39040198 1936.30 
-15.16760441 -37.94124434 1769.90 
-15.16760441 -37.49208670 1621.70 
-15.16760441 -37.04292906 1489.58 
-15.16760441 -36.59377141 1372.18 
-15.16760441 -36.14461377 1268.95 
-15.16760441 -35.69545613 1179.76 
-15.16760441 8.77115043 1240.86 
-15.16760441 9.22030808 1230.60 
-15.16760441 9.66946572 1234.08 
-15.16760441 10.11862336 1256.34 
-15.16760441 10.56778100 1299.95 
-15.16760441 11.01693864 1365.43 
-15.16760441 11.46609629 1451.61 
-15.16760441 40.66134302 1605.38 
-15.16760441 41.11050066 1528.52 
-15.16760441 41.55965830 1457.99 
-15.16760441 42.00881595 1394.70 
-15.16760441 42.45797359 1340.85 
-15.16760441 42.90713123 1298.65 
-15.16760441 43.35628887 1269.54 
-15.16760441 43.80544651 1253.46 
-15.16760441 44.25460416 1249.09 
-15.16760441 44.70376180 1253.91 
-15.16760441 45.15291944 1264.62 
-15.16760441 45.60207708 1277.37 
-15.16760441 46.05123473 1288.44 
-15.16760441 46.50039237 1294.55 
-15.16760441 46.94955001 1293.28 
-15.16760441 47.39870765 1282.86 
-15.16760441 50.99196879 929.50 
-15.16760441 51.44112643 888.79 
-15.16760441 51.89028407 855.12 
-15.16760441 52.33944171 827.94 
-15.16760441 116.11982689 1084.14 
-15.16760441 116.56898453 1037.38 
-15.16760441 117.01814217 1003.01 
-15.16760441 117.46729981 985.91 
-15.16760441 117.91645745 988.53 
-15.16760441 118.36561510 1012.07 
-15.16760441 118.81477274 1057.27 
-15.16760441 119.26393038 1124.59 
-15.16760441 119.71308802 1213.94 
-15.16760441 120.16224566 1323.76 
-15.16760441 120.61140331 1449.65 
-15.16760441 121.06056095 1583.29 
-15.16760441 121.50971859 1713.02 
-15.16760441 121.95887623 1827.01 
-15.16760441 122.40803388 1916.98 
-15.16760441 122.85719152 1980.43 
-15.16760441 123.30634916 2019.58 
-15.16760441 123.75550680 2039.01 
-15.16760441 124.20466444 2043.59 
-15.16760441 128.69624086 2110.86 
-15.16760441 129.14539851 2206.73 
-15.16760441 139.92518192 1293.37 
-15.16760441 140.37433956 1227.80 
-15.16760441 140.82349720 1171.77 
-15.16760441 145.31507362 897.06 
-15.16760441 145.76423126 881.42 
-15.16760441 146.21338890 868.43 
-15.16760441 146.66254655 859.93 
-15.16760441 147.11170419 857.47 
-15.16760441 147.56086183 861.76 
-15.16760441 148.01001947 872.77 
-15.16760441 148.45917711 889.92 
-15.16760441 149.80665004 961.53 
-15.16760441 150.25580768 979.48 
-15.16760441 150.70496533 985.65 
-15.16760441 151.15412297 977.32 
-15.16760441 151.60328061 957.22 
-15.16760441 152.05243825 933.31 
-15.16760441 152.50159589 915.81 
-15.16760441 152.95075354 914.05 
-15.16760441 153.39991118 934.92 
-15.16760441 153.84906882 982.44 
-15.16760441 154.29822646 1056.72 
-14.71844677 -70.28059457 1858.16 
-14.71844677 -69.83143693 1700.01 
-14.71844677 -69.38227928 1615.40 
-14.71844677 -68.93312164 1594.50 
-14.71844677 -68.48396400 1627.70 
-14.71844677 -68.03480636 1705.59 
-14.71844677 -67.58564872 1817.27 
-14.71844677 -38.39040198 2029.89 
-14.71844677 -37.94124434 1857.17 
-14.71844677 -37.49208670 1700.47 
-14.71844677 -37.04292906 1558.73 
-14.71844677 -36.59377141 1431.38 
-14.71844677 -36.14461377 1318.59 
-14.71844677 -35.69545613 1220.74 
-14.71844677 -35.24629849 1138.10 
-14.71844677 8.32199279 1253.61 
-14.71844677 8.77115043 1225.68 
-14.71844677 9.22030808 1205.85 
-14.71844677 9.66946572 1203.18 
-14.71844677 10.11862336 1223.47 
-14.71844677 10.56778100 1269.81 
-14.71844677 11.01693864 1343.14 
-14.71844677 11.46609629 1442.42 
-14.71844677 40.66134302 1535.91 
-14.71844677 41.11050066 1447.63 
-14.71844677 41.55965830 1369.99 
-14.71844677 42.00881595 1303.52 
-14.71844677 42.45797359 1249.38 
-14.71844677 42.90713123 1208.59 
-14.71844677 43.35628887 1181.55 
-14.71844677 43.80544651 1167.63 
-14.71844677 44.25460416 1165.31 
-14.71844677 44.70376180 1172.21 
-14.71844677 45.15291944 1185.40 
-14.71844677 45.60207708 1201.63 
-14.71844677 46.05123473 1217.78 
-14.71844677 46.50039237 1231.02 
-14.71844677 46.94955001 1239.00 
-14.71844677 47.39870765 1239.62 
-14.71844677 51.44112643 908.29 
-14.71844677 51.89028407 872.76 
-14.71844677 52.33944171 842.78 
-14.71844677 116.11982689 1062.87 
-14.71844677 116.56898453 1035.23 
-14.71844677 117.91645745 1006.25 
-14.71844677 118.36561510 1024.12 
-14.71844677 118.81477274 1058.99 
-14.71844677 119.26393038 1112.54 
-14.71844677 119.71308802 1186.13 
-14.71844677 120.16224566 1280.02 
-14.71844677 120.61140331 1392.11 
-14.71844677 121.06056095 1516.58 
-14.71844677 121.50971859 1643.53 
-14.71844677 121.95887623 1761.03 
-14.71844677 122.40803388 1858.78 
-14.71844677 122.85719152 1931.40 
-14.71844677 123.30634916 1978.82 
-14.71844677 123.75550680 2004.43 
-14.71844677 124.20466444 2012.93 
-14.71844677 128.24708322 2036.55 
-14.71844677 128.69624086 2107.08 
-14.71844677 129.14539851 2204.81 
-14.71844677 129.59455615 2329.95 
-14.71844677 139.92518192 1293.65 
-14.71844677 140.37433956 1220.22 
-14.71844677 140.82349720 1157.46 
-14.71844677 141.27265484 1103.59 
-14.71844677 145.31507362 868.53 
-14.71844677 145.76423126 859.09 
-14.71844677 146.21338890 851.59 
-14.71844677 146.66254655 846.96 
-14.71844677 147.11170419 846.59 
-14.71844677 147.56086183 851.68 
-14.71844677 148.01001947 863.10 
-14.71844677 148.45917711 881.25 
-14.71844677 148.90833476 906.06 
-14.71844677 149.35749240 935.96 
-14.71844677 149.80665004 967.00 
-14.71844677 150.25580768 992.36 
-14.71844677 150.70496533 1003.96 
-14.71844677 151.15412297 996.32 
-14.71844677 151.60328061 970.82 
-14.71844677 152.05243825 936.23 
-14.71844677 152.50159589 904.70 
-14.71844677 152.95075354 886.96 
-14.71844677 153.39991118 890.10 
-14.71844677 153.84906882 917.41 
-14.71844677 154.29822646 968.21 
-14.26928913 -70.72975221 2276.73 
-14.26928913 -70.28059457 2026.73 
-14.26928913 -69.83143693 1849.28 
-14.26928913 -69.38227928 1740.98 
-14.26928913 -68.93312164 1693.56 
-14.26928913 -68.48396400 1697.49 
-14.26928913 -68.03480636 1743.07 
-14.26928913 -67.58564872 1820.10 
-14.26928913 -67.13649107 1917.13 
-14.26928913 -38.39040198 2158.32 
-14.26928913 -37.94124434 1978.19 
-14.26928913 -37.49208670 1811.95 
-14.26928913 -37.04292906 1659.29 
-14.26928913 -36.59377141 1520.38 
-14.26928913 -36.14461377 1396.17 
-14.26928913 -35.69545613 1287.70 
-14.26928913 -35.24629849 1195.77 
-14.26928913 -34.79714085 1120.52 
-14.26928913 8.32199279 1253.42 
-14.26928913 8.77115043 1209.57 
-14.26928913 9.22030808 1175.95 
-14.26928913 9.66946572 1162.81 
-14.26928913 10.11862336 1176.40 
-14.26928913 10.56778100 1220.18 
-14.26928913 11.01693864 1295.85 
-14.26928913 11.46609629 1403.35 
-14.26928913 11.91525393 1540.34 
-14.26928913 40.21218538 1590.77 
-14.26928913 40.66134302 1481.16 
-14.26928913 41.11050066 1385.65 
-14.26928913 41.55965830 1303.75 
-14.26928913 42.00881595 1235.48 
-14.26928913 42.45797359 1181.14 
-14.26928913 42.90713123 1140.90 
-14.26928913 43.35628887 1114.52 
-14.26928913 43.80544651 1101.05 
-14.26928913 44.25460416 1098.92 
-14.26928913 44.70376180 1105.93 
-14.26928913 45.15291944 1119.53 
-14.26928913 45.60207708 1136.95 
-14.26928913 46.05123473 1155.60 
-14.26928913 46.50039237 1173.08 
-14.26928913 46.94955001 1187.31 
-14.26928913 47.39870765 1196.17 
-14.26928913 47.84786529 1197.66 
-14.26928913 118.36561510 1035.24 
-14.26928913 118.81477274 1062.57 
-14.26928913 119.26393038 1104.80 
-14.26928913 119.71308802 1164.46 
-14.26928913 120.16224566 1243.27 
-14.26928913 120.61140331 1341.16 
-14.26928913 121.06056095 1454.82 
-14.26928913 121.50971859 1576.79 
-14.26928913 121.95887623 1696.19 
-14.26928913 122.40803388 1801.50 
-14.26928913 122.85719152 1884.07 
-14.26928913 123.30634916 1940.32 
-14.26928913 123.75550680 1971.41 
-14.26928913 124.20466444 1981.68 
-14.26928913 124.65382209 1976.61 
-14.26928913 127.34876794 1942.24 
-14.26928913 127.79792558 1976.88 
-14.26928913 128.24708322 2032.25 
-14.26928913 128.69624086 2111.54 
-14.26928913 129.14539851 2217.19 
-14.26928913 129.59455615 2349.37 
-14.26928913 139.47602427 1413.52 
-14.26928913 139.92518192 1318.71 
-14.26928913 140.37433956 1237.12 
-14.26928913 140.82349720 1167.12 
-14.26928913 141.27265484 1106.85 
-14.26928913 144.86591598 857.19 
-14.26928913 145.31507362 849.48 
-14.26928913 145.76423126 844.48 
-14.26928913 146.21338890 841.35 
-14.26928913 146.66254655 839.87 
-14.26928913 147.11170419 840.86 
-14.26928913 147.56086183 845.67 
-14.26928913 148.01001947 855.89 
-14.26928913 148.45917711 872.93 
-14.26928913 148.90833476 897.79 
-14.26928913 149.35749240 929.81 
-14.26928913 149.80665004 965.47 
-14.26928913 150.25580768 997.34 
-14.26928913 150.70496533 1015.43 
-14.26928913 151.15412297 1011.43 
-14.26928913 151.60328061 984.64 
-14.26928913 152.05243825 943.66 
-14.26928913 152.50159589 902.01 
-14.26928913 152.95075354 871.77 
-14.26928913 153.39991118 860.42 
-14.26928913 153.84906882 870.73 
-14.26928913 154.29822646 901.42 
-13.82013149 -70.28059457 2233.68 
-13.82013149 -69.83143693 2043.93 
-13.82013149 -69.38227928 1913.30 
-13.82013149 -68.93312164 1837.89 
-13.82013149 -68.48396400 1810.19 
-13.82013149 -68.03480636 1821.54 
-13.82013149 -67.58564872 1862.96 
-13.82013149 -67.13649107 1925.11 
-13.82013149 -38.39040198 2319.28 
-13.82013149 -37.94124434 2131.62 
-13.82013149 -37.49208670 1956.66 
-13.82013149 -37.04292906 1793.91 
-13.82013149 -36.59377141 1643.73 
-13.82013149 -36.14461377 1507.71 
-13.82013149 -35.69545613 1387.58 
-13.82013149 -35.24629849 1284.81 
-13.82013149 -34.79714085 1200.05 
-13.82013149 -34.34798320 1132.91 
-13.82013149 8.32199279 1257.88 
-13.82013149 8.77115043 1198.05 
-13.82013149 9.22030808 1149.75 
-13.82013149 9.66946572 1124.26 
-13.82013149 10.11862336 1128.03 
-13.82013149 10.56778100 1164.68 
-13.82013149 11.01693864 1236.51 
-13.82013149 11.46609629 1344.86 
-13.82013149 11.91525393 1489.29 
-13.82013149 40.21218538 1565.03 
-13.82013149 40.66134302 1448.74 
-13.82013149 41.11050066 1348.26 
-13.82013149 41.55965830 1263.08 
-13.82013149 42.00881595 1192.86 
-13.82013149 42.45797359 1137.36 
-13.82013149 42.90713123 1096.24 
-13.82013149 43.35628887 1068.86 
-13.82013149 43.80544651 1054.14 
-13.82013149 44.25460416 1050.53 
-13.82013149 44.70376180 1056.04 
-13.82013149 45.15291944 1068.41 
-13.82013149 45.60207708 1085.28 
-13.82013149 46.05123473 1104.46 
-13.82013149 46.50039237 1123.93 
-13.82013149 46.94955001 1141.84 
-13.82013149 47.39870765 1156.26 
-13.82013149 47.84786529 1165.11 
-13.82013149 118.81477274 1061.67 
-13.82013149 119.26393038 1095.31 
-13.82013149 119.71308802 1143.23 
-13.82013149 120.16224566 1208.18 
-13.82013149 120.61140331 1291.70 
-13.82013149 121.06056095 1392.89 
-13.82013149 121.50971859 1507.28 
-13.82013149 121.95887623 1626.36 
-13.82013149 122.40803388 1738.85 
-13.82013149 122.85719152 1833.31 
-13.82013149 123.30634916 1901.58 
-13.82013149 123.75550680 1940.82 
-13.82013149 124.20466444 1953.77 
-13.82013149 124.65382209 1946.76 
-13.82013149 125.10297973 1928.13 
-13.82013149 126.89961030 1884.00 
-13.82013149 127.34876794 1905.37 
-13.82013149 127.79792558 1946.15 
-13.82013149 128.24708322 2009.20 
-13.82013149 128.69624086 2097.30 
-13.82013149 129.14539851 2212.49 
-13.82013149 129.59455615 2354.85 
-13.82013149 139.47602427 1470.74 
-13.82013149 139.92518192 1367.35 
-13.82013149 140.37433956 1277.66 
-13.82013149 140.82349720 1200.12 
-13.82013149 141.27265484 1132.96 
-13.82013149 144.41675834 861.10 
-13.82013149 144.86591598 848.80 
-13.82013149 145.31507362 842.01 
-13.82013149 145.76423126 839.24 
-13.82013149 146.21338890 838.78 
-13.82013149 146.66254655 839.28 
-13.82013149 147.11170419 840.77 
-13.82013149 147.56086183 844.41 
-13.82013149 148.01001947 852.21 
-13.82013149 148.45917711 866.35 
-13.82013149 148.90833476 888.70 
-13.82013149 149.35749240 919.52 
-13.82013149 149.80665004 956.05 
-13.82013149 150.25580768 991.23 
-13.82013149 150.70496533 1014.49 
-13.82013149 151.15412297 1015.78 
-13.82013149 151.60328061 992.01 
-13.82013149 152.05243825 950.28 
-13.82013149 152.50159589 904.12 
-13.82013149 152.95075354 866.33 
-13.82013149 153.39991118 844.90 
-13.82013149 153.84906882 842.60 
-13.82013149 154.29822646 858.07 
-13.37097385 -70.28059457 2438.89 
-13.37097385 -69.83143693 2256.03 
-13.37097385 -69.38227928 2114.41 
-13.37097385 -68.93312164 2016.69 
-13.37097385 -68.48396400 1959.85 
-13.37097385 -68.03480636 1938.12 
-13.37097385 -67.58564872 1944.80 
-13.37097385 -67.13649107 1972.92 
-13.37097385 -38.39040198 2506.14 
-13.37097385 -37.94124434 2311.09 
-13.37097385 -37.49208670 2130.02 
-13.37097385 -37.04292906 1960.82 
-13.37097385 -36.59377141 1802.78 
-13.37097385 -36.14461377 1657.42 
-13.37097385 -35.69545613 1526.82 
-13.37097385 -35.24629849 1413.08 
-13.37097385 -34.79714085 1317.43 
-13.37097385 -34.34798320 1239.99 
-13.37097385 8.32199279 1263.54 
-13.37097385 8.77115043 1192.26 
-13.37097385 9.22030808 1131.80 
-13.37097385 9.66946572 1094.63 
-13.37097385 10.11862336 1087.52 
-13.37097385 10.56778100 1114.13 
-13.37097385 11.01693864 1177.18 
-13.37097385 11.46609629 1279.16 
-13.37097385 11.91525393 1421.69 
-13.37097385 12.36441157 1603.79 
-13.37097385 40.21218538 1561.75 
-13.37097385 40.66134302 1440.85 
-13.37097385 41.11050066 1336.11 
-13.37097385 41.55965830 1247.29 
-13.37097385 42.00881595 1174.01 
-13.37097385 42.45797359 1115.82 
-13.37097385 42.90713123 1072.16 
-13.37097385 43.35628887 1042.22 
-13.37097385 43.80544651 1024.85 
-13.37097385 44.25460416 1018.56 
-13.37097385 44.70376180 1021.49 
-13.37097385 45.15291944 1031.63 
-13.37097385 45.60207708 1046.89 
-13.37097385 46.05123473 1065.38 
-13.37097385 46.50039237 1085.34 
-13.37097385 46.94955001 1105.11 
-13.37097385 47.39870765 1122.93 
-13.37097385 47.84786529 1136.85 
-13.37097385 48.29702294 1144.80 
-13.37097385 119.71308802 1118.44 
-13.37097385 120.16224566 1170.17 
-13.37097385 120.61140331 1238.70 
-13.37097385 121.06056095 1325.24 
-13.37097385 121.50971859 1428.42 
-13.37097385 121.95887623 1543.13 
-13.37097385 122.40803388 1660.21 
-13.37097385 122.85719152 1767.18 
-13.37097385 123.30634916 1851.51 
-13.37097385 123.75550680 1904.69 
-13.37097385 124.20466444 1925.73 
-13.37097385 124.65382209 1920.46 
-13.37097385 125.10297973 1899.23 
-13.37097385 125.55213737 1872.66 
-13.37097385 126.00129501 1849.83 
-13.37097385 126.45045265 1837.00 
-13.37097385 126.89961030 1838.66 
-13.37097385 127.34876794 1857.94 
-13.37097385 127.79792558 1897.88 
-13.37097385 128.24708322 1961.62 
-13.37097385 128.69624086 2052.20 
-13.37097385 129.14539851 2171.80 
-13.37097385 129.59455615 2320.65 
-13.37097385 139.47602427 1548.60 
-13.37097385 139.92518192 1437.97 
-13.37097385 140.37433956 1340.79 
-13.37097385 140.82349720 1255.81 
-13.37097385 141.27265484 1181.48 
-13.37097385 143.96760069 894.78 
-13.37097385 144.41675834 872.26 
-13.37097385 144.86591598 857.35 
-13.37097385 145.31507362 849.23 
-13.37097385 145.76423126 846.32 
-13.37097385 146.21338890 846.36 
-13.37097385 146.66254655 847.23 
-13.37097385 147.11170419 848.17 
-13.37097385 147.56086183 849.94 
-13.37097385 148.01001947 854.64 
-13.37097385 148.45917711 864.85 
-13.37097385 148.90833476 883.01 
-13.37097385 149.35749240 910.00 
-13.37097385 149.80665004 943.86 
-13.37097385 150.25580768 978.43 
-13.37097385 150.70496533 1003.90 
-13.37097385 151.15412297 1009.92 
-13.37097385 151.60328061 991.73 
-13.37097385 152.05243825 954.10 
-13.37097385 152.50159589 908.98 
-13.37097385 152.95075354 868.85 
-13.37097385 153.39991118 842.02 
-13.37097385 153.84906882 831.67 
-13.37097385 154.29822646 836.90 
-12.92181620 -70.72975221 2742.15 
-12.92181620 -70.28059457 2588.72 
-12.92181620 -69.83143693 2439.92 
-12.92181620 -69.38227928 2309.17 
-12.92181620 -68.93312164 2204.59 
-12.92181620 -68.48396400 2128.62 
-12.92181620 -68.03480636 2080.09 
-12.92181620 -67.58564872 2056.05 
-12.92181620 -67.13649107 2052.79 
-12.92181620 -38.39040198 2706.22 
-12.92181620 -37.94124434 2502.76 
-12.92181620 -37.49208670 2318.96 
-12.92181620 -37.04292906 2149.55 
-12.92181620 -36.59377141 1990.93 
-12.92181620 -36.14461377 1843.03 
-12.92181620 -35.69545613 1707.15 
-12.92181620 -35.24629849 1585.44 
-12.92181620 -34.79714085 1479.47 
-12.92181620 -34.34798320 1389.88 
-12.92181620 8.77115043 1191.23 
-12.92181620 9.22030808 1124.19 
-12.92181620 9.66946572 1078.00 
-12.92181620 10.11862336 1060.44 
-12.92181620 10.56778100 1075.58 
-12.92181620 11.01693864 1126.49 
-12.92181620 11.46609629 1216.29 
-12.92181620 11.91525393 1348.08 
-12.92181620 12.36441157 1523.40 
-12.92181620 12.81356921 1738.98 
-12.92181620 40.21218538 1581.28 
-12.92181620 40.66134302 1456.79 
-12.92181620 41.11050066 1347.42 
-12.92181620 41.55965830 1253.61 
-12.92181620 42.00881595 1175.38 
-12.92181620 42.45797359 1112.52 
-12.92181620 42.90713123 1064.53 
-12.92181620 43.35628887 1030.60 
-12.92181620 43.80544651 1009.54 
-12.92181620 44.25460416 999.83 
-12.92181620 44.70376180 999.67 
-12.92181620 45.15291944 1007.13 
-12.92181620 45.60207708 1020.31 
-12.92181620 46.05123473 1037.50 
-12.92181620 46.50039237 1057.10 
-12.92181620 46.94955001 1077.60 
-12.92181620 47.39870765 1097.34 
-12.92181620 47.84786529 1114.51 
-12.92181620 48.29702294 1127.22 
-12.92181620 119.71308802 1088.74 
-12.92181620 120.16224566 1126.97 
-12.92181620 120.61140331 1179.42 
-12.92181620 121.06056095 1248.86 
-12.92181620 121.50971859 1336.57 
-12.92181620 121.95887623 1441.00 
-12.92181620 122.40803388 1556.41 
-12.92181620 122.85719152 1671.77 
-12.92181620 123.30634916 1772.44 
-12.92181620 123.75550680 1844.59 
-12.92181620 124.20466444 1881.63 
-12.92181620 124.65382209 1886.45 
-12.92181620 125.10297973 1869.64 
-12.92181620 125.55213737 1843.42 
-12.92181620 126.00129501 1818.36 
-12.92181620 126.45045265 1801.42 
-12.92181620 126.89961030 1797.46 
-12.92181620 127.34876794 1809.89 
-12.92181620 127.79792558 1842.38 
-12.92181620 128.24708322 1898.76 
-12.92181620 128.69624086 1982.87 
-12.92181620 129.14539851 2097.38 
-12.92181620 139.47602427 1643.54 
-12.92181620 139.92518192 1527.83 
-12.92181620 140.37433956 1424.50 
-12.92181620 140.82349720 1332.74 
-12.92181620 143.96760069 931.55 
-12.92181620 144.41675834 904.71 
-12.92181620 144.86591598 886.03 
-12.92181620 145.31507362 874.85 
-12.92181620 145.76423126 869.64 
-12.92181620 146.21338890 867.99 
-12.92181620 146.66254655 867.39 
-12.92181620 147.11170419 866.53 
-12.92181620 147.56086183 865.82 
-12.92181620 148.01001947 867.19 
-12.92181620 148.45917711 873.34 
-12.92181620 148.90833476 886.87 
-12.92181620 149.35749240 908.97 
-12.92181620 149.80665004 938.19 
-12.92181620 150.25580768 969.34 
-12.92181620 150.70496533 993.83 
-12.92181620 151.15412297 1002.13 
-12.92181620 151.60328061 988.93 
-12.92181620 152.05243825 956.99 
-12.92181620 152.50159589 916.05 
-12.92181620 152.95075354 877.33 
-12.92181620 153.39991118 848.99 
-12.92181620 153.84906882 834.66 
-12.92181620 154.29822646 834.17 
-12.47265856 -70.72975221 2731.04 
-12.47265856 -70.28059457 2648.97 
-12.47265856 -69.83143693 2554.96 
-12.47265856 -69.38227928 2458.43 
-12.47265856 -68.93312164 2367.92 
-12.47265856 -68.48396400 2289.18 
-12.47265856 -68.03480636 2225.57 
-12.47265856 -67.58564872 2178.90 
-12.47265856 -38.39040198 2904.19 
-12.47265856 -37.94124434 2688.10 
-12.47265856 -37.49208670 2502.70 
-12.47265856 -37.04292906 2338.93 
-12.47265856 -36.59377141 2188.74 
-12.47265856 -36.14461377 2048.46 
-12.47265856 -35.69545613 1916.77 
-12.47265856 -35.24629849 1794.42 
-12.47265856 -34.79714085 1682.24 
-12.47265856 9.22030808 1124.82 
-12.47265856 9.66946572 1074.16 
-12.47265856 10.11862336 1048.03 
-12.47265856 10.56778100 1051.65 
-12.47265856 11.01693864 1088.62 
-12.47265856 11.46609629 1162.37 
-12.47265856 11.91525393 1276.60 
-12.47265856 12.36441157 1434.21 
-12.47265856 12.81356921 1634.54 
-12.47265856 13.26272685 1869.54 
-12.47265856 39.76302774 1759.28 
-12.47265856 40.21218538 1621.85 
-12.47265856 40.66134302 1494.08 
-12.47265856 41.11050066 1378.90 
-12.47265856 41.55965830 1277.98 
-12.47265856 42.00881595 1192.36 
-12.47265856 42.45797359 1122.52 
-12.47265856 42.90713123 1068.36 
-12.47265856 43.35628887 1029.20 
-12.47265856 43.80544651 1003.77 
-12.47265856 44.25460416 990.42 
-12.47265856 44.70376180 987.22 
-12.47265856 45.15291944 992.16 
-12.47265856 45.60207708 1003.36 
-12.47265856 46.05123473 1019.16 
-12.47265856 46.50039237 1038.06 
-12.47265856 46.94955001 1058.64 
-12.47265856 47.39870765 1079.31 
-12.47265856 47.84786529 1098.38 
-12.47265856 48.29702294 1114.14 
-12.47265856 48.74618058 1125.13 
-12.47265856 120.16224566 1079.47 
-12.47265856 120.61140331 1115.00 
-12.47265856 121.06056095 1165.71 
-12.47265856 121.50971859 1234.61 
-12.47265856 121.95887623 1322.87 
-12.47265856 122.40803388 1428.18 
-12.47265856 122.85719152 1542.71 
-12.47265856 123.30634916 1652.99 
-12.47265856 123.75550680 1742.85 
-12.47265856 124.20466444 1800.61 
-12.47265856 124.65382209 1824.19 
-12.47265856 125.10297973 1821.57 
-12.47265856 125.55213737 1804.57 
-12.47265856 126.00129501 1784.19 
-12.47265856 126.45045265 1767.83 
-12.47265856 126.89961030 1760.60 
-12.47265856 127.34876794 1766.31 
-12.47265856 127.79792558 1789.27 
-12.47265856 128.24708322 1834.16 
-12.47265856 128.69624086 1905.63 
-12.47265856 129.14539851 2006.90 
-12.47265856 139.92518192 1631.76 
-12.47265856 140.37433956 1524.39 
-12.47265856 143.96760069 990.88 
-12.47265856 144.41675834 959.48 
-12.47265856 144.86591598 936.23 
-12.47265856 145.31507362 920.64 
-12.47265856 145.76423126 911.42 
-12.47265856 146.21338890 906.28 
-12.47265856 146.66254655 902.74 
-12.47265856 147.11170419 899.27 
-12.47265856 147.56086183 895.99 
-12.47265856 148.01001947 894.54 
-12.47265856 148.45917711 897.45 
-12.47265856 148.90833476 907.20 
-12.47265856 149.35749240 924.93 
-12.47265856 149.80665004 949.37 
-12.47265856 150.25580768 975.90 
-12.47265856 150.70496533 996.93 
-12.47265856 151.15412297 1004.00 
-12.47265856 151.60328061 992.22 
-12.47265856 152.05243825 963.54 
-12.47265856 152.50159589 926.07 
-12.47265856 152.95075354 889.64 
-12.47265856 153.39991118 861.83 
-12.47265856 153.84906882 846.44 
-12.47265856 154.29822646 843.87 
-12.47265856 167.32379808 949.54 
-12.02350092 -71.17890985 2648.43 
-12.02350092 -70.72975221 2646.42 
-12.02350092 -70.28059457 2627.11 
-12.02350092 -69.83143693 2591.05 
-12.02350092 -69.38227928 2540.79 
-12.02350092 -68.93312164 2480.43 
-12.02350092 -68.48396400 2414.96 
-12.02350092 -68.03480636 2350.04 
-12.02350092 -37.04292906 2500.56 
-12.02350092 -36.59377141 2363.28 
-12.02350092 -36.14461377 2237.91 
-12.02350092 -35.69545613 2119.15 
-12.02350092 9.22030808 1129.70 
-12.02350092 9.66946572 1080.70 
-12.02350092 10.11862336 1049.27 
-12.02350092 10.56778100 1042.46 
-12.02350092 11.01693864 1064.94 
-12.02350092 11.46609629 1120.44 
-12.02350092 11.91525393 1212.69 
-12.02350092 12.36441157 1344.75 
-12.02350092 12.81356921 1517.21 
-12.02350092 13.26272685 1725.04 
-12.02350092 39.76302774 1815.20 
-12.02350092 40.21218538 1680.04 
-12.02350092 40.66134302 1548.83 
-12.02350092 41.11050066 1426.18 
-12.02350092 41.55965830 1315.62 
-12.02350092 42.00881595 1219.87 
-12.02350092 42.45797359 1140.66 
-12.02350092 42.90713123 1078.61 
-12.02350092 43.35628887 1033.25 
-12.02350092 43.80544651 1003.18 
-12.02350092 44.25460416 986.44 
-12.02350092 44.70376180 980.75 
-12.02350092 45.15291944 983.81 
-12.02350092 45.60207708 993.56 
-12.02350092 46.05123473 1008.26 
-12.02350092 46.50039237 1026.46 
-12.02350092 46.94955001 1046.75 
-12.02350092 47.39870765 1067.67 
-12.02350092 47.84786529 1087.62 
-12.02350092 48.29702294 1105.05 
-12.02350092 48.74618058 1118.68 
-12.02350092 49.19533822 1127.73 
-12.02350092 121.06056095 1082.41 
-12.02350092 121.50971859 1131.48 
-12.02350092 121.95887623 1200.08 
-12.02350092 122.40803388 1288.20 
-12.02350092 122.85719152 1391.23 
-12.02350092 123.30634916 1498.97 
-12.02350092 123.75550680 1596.69 
-12.02350092 124.20466444 1670.86 
-12.02350092 124.65382209 1715.00 
-12.02350092 125.10297973 1732.66 
-12.02350092 125.55213737 1732.89 
-12.02350092 126.00129501 1725.58 
-12.02350092 126.45045265 1717.83 
-12.02350092 126.89961030 1714.73 
-12.02350092 127.34876794 1720.04 
-12.02350092 127.79792558 1738.37 
-12.02350092 128.24708322 1774.79 
-12.02350092 128.69624086 1834.37 
-12.02350092 129.14539851 1920.61 
-12.02350092 135.43360549 3321.54 
-12.02350092 143.96760069 1072.22 
-12.02350092 144.41675834 1036.49 
-12.02350092 144.86591598 1008.42 
-12.02350092 145.31507362 987.73 
-12.02350092 145.76423126 973.53 
-12.02350092 146.21338890 963.91 
-12.02350092 146.66254655 956.74 
-12.02350092 147.11170419 950.58 
-12.02350092 147.56086183 945.34 
-12.02350092 148.01001947 942.33 
-12.02350092 148.45917711 943.72 
-12.02350092 148.90833476 951.64 
-12.02350092 149.35749240 966.85 
-12.02350092 149.80665004 987.72 
-12.02350092 150.25580768 1009.52 
-12.02350092 150.70496533 1024.90 
-12.02350092 151.15412297 1026.23 
-12.02350092 151.60328061 1009.75 
-12.02350092 152.05243825 978.22 
-12.02350092 152.50159589 939.60 
-12.02350092 152.95075354 903.02 
-12.02350092 153.39991118 875.39 
-12.02350092 153.84906882 860.26 
-12.02350092 154.29822646 858.18 
-11.57434328 -73.42469806 2206.22 
-11.57434328 -72.97554042 2281.90 
-11.57434328 -72.52638278 2347.66 
-11.57434328 -72.07722514 2404.39 
-11.57434328 -71.62806749 2454.14 
-11.57434328 -71.17890985 2497.68 
-11.57434328 -70.72975221 2533.71 
-11.57434328 -70.28059457 2559.02 
-11.57434328 -69.83143693 2569.85 
-11.57434328 -69.38227928 2563.00 
-11.57434328 -37.04292906 2609.89 
-11.57434328 -36.59377141 2479.50 
-11.57434328 -36.14461377 2364.63 
-11.57434328 -35.69545613 2256.56 
-11.57434328 9.66946572 1092.28 
-11.57434328 10.11862336 1060.27 
-11.57434328 10.56778100 1045.53 
-11.57434328 11.01693864 1054.30 
-11.57434328 11.46609629 1090.97 
-11.57434328 11.91525393 1159.21 
-11.57434328 12.36441157 1261.68 
-11.57434328 12.81356921 1399.22 
-11.57434328 13.26272685 1568.84 
-11.57434328 13.71188450 1762.30 
-11.57434328 39.31387009 2003.56 
-11.57434328 39.76302774 1881.03 
-11.57434328 40.21218538 1749.34 
-11.57434328 40.66134302 1614.60 
-11.57434328 41.11050066 1483.14 
-11.57434328 41.55965830 1360.89 
-11.57434328 42.00881595 1252.85 
-11.57434328 42.45797359 1162.52 
-11.57434328 42.90713123 1091.50 
-11.57434328 43.35628887 1039.53 
-11.57434328 43.80544651 1005.02 
-11.57434328 44.25460416 985.53 
-11.57434328 44.70376180 978.23 
-11.57434328 45.15291944 980.35 
-11.57434328 45.60207708 989.44 
-11.57434328 46.05123473 1003.56 
-11.57434328 46.50039237 1021.18 
-11.57434328 46.94955001 1040.97 
-11.57434328 47.39870765 1061.54 
-11.57434328 47.84786529 1081.45 
-11.57434328 48.29702294 1099.32 
-11.57434328 48.74618058 1114.07 
-11.57434328 49.19533822 1125.08 
-11.57434328 49.64449586 1132.16 
-11.57434328 122.85719152 1238.94 
-11.57434328 123.30634916 1333.08 
-11.57434328 123.75550680 1425.54 
-11.57434328 124.20466444 1504.15 
-11.57434328 124.65382209 1560.82 
-11.57434328 125.10297973 1595.41 
-11.57434328 125.55213737 1613.50 
-11.57434328 126.00129501 1623.01 
-11.57434328 126.45045265 1630.24 
-11.57434328 126.89961030 1639.79 
-11.57434328 127.34876794 1654.80 
-11.57434328 127.79792558 1679.08 
-11.57434328 128.24708322 1716.93 
-11.57434328 128.69624086 1772.88 
-11.57434328 129.14539851 1850.07 
-11.57434328 129.59455615 1949.92 
-11.57434328 134.53529021 3357.73 
-11.57434328 134.98444785 3344.63 
-11.57434328 135.43360549 3275.97 
-11.57434328 135.88276314 3157.03 
-11.57434328 136.33192078 3002.84 
-11.57434328 143.96760069 1173.35 
-11.57434328 144.41675834 1134.04 
-11.57434328 144.86591598 1101.50 
-11.57434328 145.31507362 1075.80 
-11.57434328 145.76423126 1056.61 
-11.57434328 146.21338890 1042.61 
-11.57434328 146.66254655 1032.23 
-11.57434328 147.11170419 1024.27 
-11.57434328 147.56086183 1018.58 
-11.57434328 148.01001947 1016.12 
-11.57434328 148.45917711 1018.69 
-11.57434328 148.90833476 1027.85 
-11.57434328 149.35749240 1043.57 
-11.57434328 151.15412297 1077.45 
-11.57434328 151.60328061 1047.89 
-11.57434328 152.05243825 1004.61 
-11.57434328 152.50159589 957.30 
-11.57434328 152.95075354 915.44 
-11.12518564 -73.87385570 2015.59 
-11.12518564 -73.42469806 2078.32 
-11.12518564 -72.97554042 2140.64 
-11.12518564 -72.52638278 2200.09 
-11.12518564 -72.07722514 2257.25 
-11.12518564 -71.62806749 2313.93 
-11.12518564 -37.04292906 2655.67 
-11.12518564 -36.59377141 2517.83 
-11.12518564 -36.14461377 2396.84 
-11.12518564 -35.69545613 2282.96 
-11.12518564 10.11862336 1076.96 
-11.12518564 10.56778100 1057.83 
-11.12518564 11.01693864 1054.76 
-11.12518564 11.46609629 1073.27 
-11.12518564 11.91525393 1117.44 
-11.12518564 12.36441157 1189.78 
-11.12518564 12.81356921 1291.15 
-11.12518564 13.26272685 1419.93 
-11.12518564 13.71188450 1571.58 
-11.12518564 39.31387009 2056.48 
-11.12518564 39.76302774 1945.56 
-11.12518564 40.21218538 1818.58 
-11.12518564 40.66134302 1681.29 
-11.12518564 41.11050066 1541.42 
-11.12518564 41.55965830 1407.38 
-11.12518564 42.00881595 1286.84 
-11.12518564 42.45797359 1185.34 
-11.12518564 42.90713123 1105.53 
-11.12518564 43.35628887 1047.44 
-11.12518564 43.80544651 1009.18 
-11.12518564 44.25460416 987.79 
-11.12518564 44.70376180 979.83 
-11.12518564 45.15291944 981.91 
-11.12518564 45.60207708 991.08 
-11.12518564 46.05123473 1005.06 
-11.12518564 46.50039237 1022.19 
-11.12518564 46.94955001 1041.17 
-11.12518564 47.39870765 1060.76 
-11.12518564 47.84786529 1079.69 
-11.12518564 48.29702294 1096.80 
-11.12518564 48.74618058 1111.20 
-11.12518564 49.19533822 1122.48 
-11.12518564 49.64449586 1130.61 
-11.12518564 122.85719152 1106.00 
-11.12518564 123.30634916 1181.12 
-11.12518564 123.75550680 1258.97 
-11.12518564 124.20466444 1330.02 
-11.12518564 124.65382209 1386.88 
-11.12518564 125.10297973 1427.76 
-11.12518564 125.55213737 1455.98 
-11.12518564 126.00129501 1477.83 
-11.12518564 126.45045265 1499.20 
-11.12518564 126.89961030 1524.53 
-11.12518564 127.34876794 1556.38 
-11.12518564 127.79792558 1597.11 
-11.12518564 128.24708322 1648.97 
-11.12518564 128.69624086 1714.41 
-11.12518564 129.14539851 1794.87 
-11.12518564 129.59455615 1890.73 
-11.12518564 130.04371379 2000.45 
-11.12518564 130.49287143 2120.79 
-11.12518564 134.08613257 3090.27 
-11.12518564 134.53529021 3158.14 
-11.12518564 134.98444785 3184.94 
-11.12518564 135.43360549 3162.52 
-11.12518564 135.88276314 3089.64 
-11.12518564 136.33192078 2975.39 
-11.12518564 136.78107842 2834.70 
-11.12518564 143.51844305 1336.06 
-11.12518564 143.96760069 1289.99 
-11.12518564 144.41675834 1248.79 
-11.12518564 144.86591598 1213.18 
-11.12518564 145.31507362 1183.70 
-11.12518564 145.76423126 1160.67 
-11.12518564 146.21338890 1143.47 
-11.12518564 146.66254655 1131.20 
-11.12518564 147.11170419 1123.07 
-11.12518564 147.56086183 1119.01 
-11.12518564 148.01001947 1119.85 
-11.12518564 148.45917711 1127.09 
-11.12518564 148.90833476 1141.63 
-10.67602799 -73.87385570 1995.07 
-10.67602799 -73.42469806 2030.26 
-10.67602799 -72.97554042 2071.76 
-10.67602799 -72.52638278 2117.10 
-10.67602799 -72.07722514 2166.37 
-10.67602799 -37.04292906 2645.02 
-10.67602799 -36.59377141 2486.47 
-10.67602799 -36.14461377 2341.90 
-10.67602799 -35.69545613 2203.68 
-10.67602799 -35.24629849 2070.97 
-10.67602799 -32.55135264 1342.67 
-10.67602799 -32.10219499 1235.99 
-10.67602799 -31.65303735 1150.29 
-10.67602799 10.11862336 1093.79 
-10.67602799 10.56778100 1075.01 
-10.67602799 11.01693864 1063.50 
-10.67602799 11.46609629 1066.19 
-10.67602799 11.91525393 1088.24 
-10.67602799 12.36441157 1132.68 
-10.67602799 12.81356921 1200.90 
-10.67602799 13.26272685 1292.36 
-10.67602799 13.71188450 1405.04 
-10.67602799 36.61892424 2453.73 
-10.67602799 37.06808188 2385.83 
-10.67602799 39.31387009 2091.48 
-10.67602799 39.76302774 1991.14 
-10.67602799 40.21218538 1870.42 
-10.67602799 40.66134302 1733.80 
-10.67602799 41.11050066 1589.38 
-10.67602799 41.55965830 1447.38 
-10.67602799 42.00881595 1317.74 
-10.67602799 42.45797359 1207.89 
-10.67602799 42.90713123 1121.53 
-10.67602799 43.35628887 1059.03 
-10.67602799 43.80544651 1018.35 
-10.67602799 44.25460416 996.11 
-10.67602799 44.70376180 988.30 
-10.67602799 45.15291944 990.95 
-10.67602799 45.60207708 1000.58 
-10.67602799 46.05123473 1014.51 
-10.67602799 46.50039237 1030.92 
-10.67602799 46.94955001 1048.54 
-10.67602799 47.39870765 1066.30 
-10.67602799 47.84786529 1083.15 
-10.67602799 48.29702294 1098.15 
-10.67602799 48.74618058 1110.66 
-10.67602799 49.19533822 1120.46 
-10.67602799 112.07740811 1215.80 
-10.67602799 112.52656575 1294.94 
-10.67602799 112.97572339 1374.60 
-10.67602799 113.42488103 1446.80 
-10.67602799 113.87403868 1503.00 
-10.67602799 114.32319632 1536.02 
-10.67602799 114.77235396 1542.10 
-10.67602799 115.22151160 1521.32 
-10.67602799 115.67066924 1477.28 
-10.67602799 116.11982689 1416.24 
-10.67602799 121.06056095 902.81 
-10.67602799 121.50971859 906.59 
-10.67602799 121.95887623 924.49 
-10.67602799 122.40803388 957.13 
-10.67602799 122.85719152 1003.37 
-10.67602799 123.30634916 1059.75 
-10.67602799 123.75550680 1120.23 
-10.67602799 124.20466444 1177.60 
-10.67602799 124.65382209 1225.83 
-10.67602799 125.10297973 1262.98 
-10.67602799 125.55213737 1291.36 
-10.67602799 126.00129501 1316.57 
-10.67602799 126.45045265 1344.66 
-10.67602799 126.89961030 1380.75 
-10.67602799 127.34876794 1427.89 
-10.67602799 127.79792558 1487.93 
-10.67602799 128.24708322 1561.39 
-10.67602799 128.69624086 1648.00 
-10.67602799 129.14539851 1746.08 
-10.67602799 129.59455615 1853.11 
-10.67602799 130.04371379 1965.41 
-10.67602799 130.49287143 2078.80 
-10.67602799 130.94202907 2189.28 
-10.67602799 131.39118672 2294.74 
-10.67602799 133.18781728 2689.53 
-10.67602799 133.63697493 2787.55 
-10.67602799 134.08613257 2878.81 
-10.67602799 134.53529021 2953.35 
-10.67602799 134.98444785 2999.16 
-10.67602799 135.43360549 3006.42 
-10.67602799 135.88276314 2970.10 
-10.67602799 136.33192078 2893.65 
-10.67602799 136.78107842 2787.24 
-10.67602799 143.51844305 1458.63 
-10.67602799 143.96760069 1415.46 
-10.67602799 144.41675834 1375.35 
-10.67602799 144.86591598 1339.34 
-10.67602799 145.31507362 1308.49 
-10.67602799 145.76423126 1283.80 
-10.67602799 146.21338890 1265.39 
-10.67602799 146.66254655 1253.09 
-10.67602799 147.11170419 1246.58 
-10.67602799 147.56086183 1246.09 
-10.67602799 148.01001947 1252.62 
-10.67602799 148.45917711 1267.66 
-10.67602799 148.90833476 1291.40 
-10.22687035 -73.87385570 2048.86 
-10.22687035 -73.42469806 2050.12 
-10.22687035 -72.97554042 2064.84 
-10.22687035 -72.52638278 2090.21 
-10.22687035 -36.59377141 2415.02 
-10.22687035 -36.14461377 2239.78 
-10.22687035 -35.69545613 2070.27 
-10.22687035 -35.24629849 1910.80 
-10.22687035 -34.79714085 1767.04 
-10.22687035 -33.00051028 1322.62 
-10.22687035 -32.55135264 1226.78 
-10.22687035 -32.10219499 1141.38 
-10.22687035 -31.65303735 1072.52 
-10.22687035 8.77115043 1077.74 
-10.22687035 9.22030808 1100.89 
-10.22687035 9.66946572 1110.64 
-10.22687035 10.11862336 1106.78 
-10.22687035 10.56778100 1093.61 
-10.22687035 11.01693864 1078.65 
-10.22687035 11.46609629 1069.67 
-10.22687035 11.91525393 1073.31 
-10.22687035 12.36441157 1094.04 
-10.22687035 12.81356921 1134.33 
-10.22687035 13.26272685 1194.79 
-10.22687035 13.71188450 1274.92 
-10.22687035 36.61892424 2501.94 
-10.22687035 37.06808188 2412.72 
-10.22687035 37.51723953 2342.07 
-10.22687035 39.31387009 2090.94 
-10.22687035 39.76302774 1998.49 
-10.22687035 40.21218538 1885.78 
-10.22687035 40.66134302 1755.40 
-10.22687035 41.11050066 1614.38 
-10.22687035 41.55965830 1472.93 
-10.22687035 42.00881595 1341.88 
-10.22687035 42.45797359 1229.82 
-10.22687035 42.90713123 1141.44 
-10.22687035 43.35628887 1077.65 
-10.22687035 43.80544651 1036.60 
-10.22687035 44.25460416 1014.79 
-10.22687035 44.70376180 1007.86 
-10.22687035 45.15291944 1011.39 
-10.22687035 45.60207708 1021.41 
-10.22687035 46.05123473 1034.91 
-10.22687035 46.50039237 1049.94 
-10.22687035 46.94955001 1065.30 
-10.22687035 47.39870765 1080.10 
-10.22687035 47.84786529 1093.54 
-10.22687035 48.29702294 1104.95 
-10.22687035 48.74618058 1113.89 
-10.22687035 108.48414697 1083.51 
-10.22687035 108.93330461 1083.62 
-10.22687035 109.38246226 1087.98 
-10.22687035 109.83161990 1099.63 
-10.22687035 110.28077754 1121.26 
-10.22687035 110.72993518 1154.85 
-10.22687035 111.17909282 1201.82 
-10.22687035 111.62825047 1262.79 
-10.22687035 112.07740811 1337.03 
-10.22687035 112.52656575 1421.64 
-10.22687035 112.97572339 1511.02 
-10.22687035 113.42488103 1596.40 
-10.22687035 113.87403868 1666.82 
-10.22687035 114.32319632 1711.42 
-10.22687035 114.77235396 1722.80 
-10.22687035 115.22151160 1698.80 
-10.22687035 115.67066924 1642.95 
-10.22687035 116.11982689 1563.40 
-10.22687035 116.56898453 1470.55 
-10.22687035 117.01814217 1374.15 
-10.22687035 117.46729981 1281.47 
-10.22687035 117.91645745 1196.88 
-10.22687035 118.36561510 1122.24 
-10.22687035 120.61140331 892.76 
-10.22687035 121.06056095 876.39 
-10.22687035 121.50971859 871.86 
-10.22687035 121.95887623 879.99 
-10.22687035 122.40803388 900.84 
-10.22687035 122.85719152 933.26 
-10.22687035 123.30634916 974.39 
-10.22687035 123.75550680 1019.48 
-10.22687035 124.20466444 1062.89 
-10.22687035 124.65382209 1099.78 
-10.22687035 125.10297973 1128.43 
-10.22687035 125.55213737 1150.81 
-10.22687035 126.00129501 1172.14 
-10.22687035 126.45045265 1198.80 
-10.22687035 126.89961030 1236.89 
-10.22687035 127.34876794 1290.88 
-10.22687035 127.79792558 1363.77 
-10.22687035 128.24708322 1456.50 
-10.22687035 128.69624086 1567.83 
-10.22687035 129.14539851 1693.52 
-10.22687035 129.59455615 1826.91 
-10.22687035 130.04371379 1959.58 
-10.22687035 130.49287143 2083.33 
-10.22687035 130.94202907 2192.28 
-10.22687035 131.39118672 2284.87 
-10.22687035 131.84034436 2363.86 
-10.22687035 132.28950200 2434.66 
-10.22687035 132.73865964 2503.04 
-10.22687035 133.18781728 2573.06 
-10.22687035 133.63697493 2645.53 
-10.22687035 134.08613257 2716.79 
-10.22687035 134.53529021 2779.35 
-10.22687035 134.98444785 2823.58 
-10.22687035 135.43360549 2840.70 
-10.22687035 135.88276314 2824.71 
-10.22687035 136.33192078 2775.43 
-10.22687035 136.78107842 2698.31 
-10.22687035 143.51844305 1576.34 
-10.22687035 143.96760069 1541.03 
-10.22687035 144.41675834 1507.02 
-10.22687035 144.86591598 1475.38 
-10.22687035 145.31507362 1447.38 
-10.22687035 145.76423126 1424.47 
-10.22687035 146.21338890 1407.38 
-10.22687035 146.66254655 1396.55 
-10.22687035 147.11170419 1392.24 
-10.22687035 147.56086183 1395.15 
-10.22687035 148.01001947 1406.74 
-10.22687035 148.45917711 1428.80 
-10.22687035 148.90833476 1460.91 
-9.77771271 -73.87385570 2158.94 
-9.77771271 -73.42469806 2121.50 
-9.77771271 -72.97554042 2105.11 
-9.77771271 -36.14461377 2134.44 
-9.77771271 -35.69545613 1938.77 
-9.77771271 -35.24629849 1757.86 
-9.77771271 -34.79714085 1600.10 
-9.77771271 -33.00051028 1183.04 
-9.77771271 -32.55135264 1107.63 
-9.77771271 -32.10219499 1041.50 
-9.77771271 -31.65303735 988.48 
-9.77771271 -31.20387971 952.49 
-9.77771271 -30.75472207 936.28 
-9.77771271 -30.30556443 941.10 
-9.77771271 7.42367751 941.51 
-9.77771271 7.87283515 972.45 
-9.77771271 8.32199279 1007.62 
-9.77771271 8.77115043 1044.32 
-9.77771271 9.22030808 1077.90 
-9.77771271 9.66946572 1102.46 
-9.77771271 10.11862336 1113.83 
-9.77771271 10.56778100 1111.51 
-9.77771271 11.01693864 1099.68 
-9.77771271 11.46609629 1085.23 
-9.77771271 11.91525393 1075.98 
-9.77771271 12.36441157 1078.33 
-9.77771271 12.81356921 1096.55 
-9.77771271 13.26272685 1132.61 
-9.77771271 13.71188450 1187.14 
-9.77771271 37.06808188 2431.39 
-9.77771271 37.51723953 2339.18 
-9.77771271 39.31387009 2044.62 
-9.77771271 39.76302774 1956.04 
-9.77771271 40.21218538 1852.42 
-9.77771271 40.66134302 1734.47 
-9.77771271 41.11050066 1606.81 
-9.77771271 41.55965830 1477.41 
-9.77771271 42.00881595 1355.83 
-9.77771271 42.45797359 1250.49 
-9.77771271 42.90713123 1166.68 
-9.77771271 43.35628887 1106.15 
-9.77771271 43.80544651 1067.67 
-9.77771271 44.25460416 1048.01 
-9.77771271 44.70376180 1042.81 
-9.77771271 45.15291944 1047.36 
-9.77771271 45.60207708 1057.41 
-9.77771271 46.05123473 1069.71 
-9.77771271 46.50039237 1082.30 
-9.77771271 46.94955001 1094.14 
-9.77771271 47.39870765 1104.60 
-9.77771271 47.84786529 1113.12 
-9.77771271 48.29702294 1119.26 
-9.77771271 48.74618058 1122.81 
-9.77771271 108.03498933 1188.72 
-9.77771271 108.48414697 1204.27 
-9.77771271 108.93330461 1218.83 
-9.77771271 109.38246226 1234.14 
-9.77771271 109.83161990 1252.37 
-9.77771271 110.28077754 1276.09 
-9.77771271 110.72993518 1307.96 
-9.77771271 111.17909282 1350.59 
-9.77771271 111.62825047 1406.09 
-9.77771271 112.07740811 1475.41 
-9.77771271 112.52656575 1557.15 
-9.77771271 112.97572339 1646.80 
-9.77771271 113.42488103 1735.83 
-9.77771271 113.87403868 1812.31 
-9.77771271 114.32319632 1863.15 
-9.77771271 114.77235396 1878.18 
-9.77771271 115.22151160 1852.99 
-9.77771271 115.67066924 1790.17 
