Latitude(degree)	Longitude(degree)	Depth(km)
-7.53192450 -31.20387971 1392.53 
-7.53192450 -30.75472207 1185.11 
-7.53192450 -30.30556443 981.65 
-7.53192450 4.27957401 804.34 
-7.53192450 4.72873166 944.49 
-7.53192450 5.17788930 1092.35 
-7.53192450 5.62704694 1278.04 
-7.53192450 6.07620458 1503.89 
-7.53192450 6.52536222 1669.10 
-7.53192450 6.97451987 1732.77 
-7.53192450 7.42367751 1813.17 
-7.53192450 7.87283515 1901.56 
-7.53192450 8.32199279 1987.38 
-7.53192450 8.77115043 2066.21 
-7.53192450 9.22030808 2144.31 
-7.53192450 9.66946572 2235.89 
-7.53192450 10.11862336 2355.45 
-7.53192450 10.56778100 2510.04 
-7.53192450 11.01693864 2691.82 
-7.53192450 11.46609629 2871.72 
-7.53192450 11.91525393 3009.63 
-7.53192450 12.36441157 3079.10 
-7.53192450 12.81356921 3087.19 
-7.53192450 37.96639717 2480.22 
-7.53192450 38.41555481 3856.42 
-7.53192450 38.86471245 3520.58 
-7.53192450 39.31387009 3228.20 
-7.53192450 39.76302774 2981.56 
-7.53192450 40.21218538 2782.51 
-7.53192450 40.66134302 2630.80 
-7.53192450 41.11050066 2523.43 
-7.53192450 41.55965830 2455.37 
-7.53192450 42.00881595 2420.67 
-7.53192450 42.45797359 2413.74 
-7.53192450 42.90713123 2429.88 
-7.53192450 43.35628887 2465.42 
-7.53192450 43.80544651 2455.12 
-7.53192450 44.25460416 1889.07 
-7.53192450 44.70376180 1507.10 
-7.53192450 104.44172819 1420.38 
-7.53192450 104.89088583 1928.78 
-7.53192450 105.34004348 2288.59 
-7.53192450 105.78920112 2368.45 
-7.53192450 106.23835876 2451.88 
-7.53192450 106.68751640 2533.34 
-7.53192450 107.13667405 2161.78 
-7.53192450 107.58583169 1744.03 
-7.53192450 108.03498933 1777.43 
-7.53192450 108.48414697 1669.12 
-7.53192450 108.93330461 2000.53 
-7.53192450 109.38246226 2441.47 
-7.53192450 109.83161990 2332.50 
-7.53192450 110.28077754 2180.97 
-7.53192450 110.72993518 2100.49 
-7.53192450 111.17909282 2385.35 
-7.53192450 111.62825047 2887.11 
-7.53192450 112.07740811 3395.83 
-7.53192450 112.52656575 3434.39 
-7.53192450 112.97572339 3484.70 
-7.53192450 113.42488103 3540.90 
-7.53192450 113.87403868 3592.52 
-7.53192450 114.32319632 3629.17 
-7.53192450 114.77235396 3643.94 
-7.53192450 115.22151160 2953.05 
-7.53192450 115.67066924 2703.29 
-7.53192450 116.11982689 2761.38 
-7.53192450 116.56898453 2902.34 
-7.53192450 117.01814217 2824.26 
-7.53192450 117.46729981 2636.63 
-7.53192450 117.91645745 2361.42 
-7.53192450 118.36561510 2051.05 
-7.53192450 118.81477274 1710.56 
-7.53192450 122.85719152 1082.67 
-7.53192450 123.30634916 1520.58 
-7.53192450 123.75550680 1746.42 
-7.53192450 124.20466444 1805.42 
-7.53192450 124.65382209 1897.78 
-7.53192450 125.10297973 1758.88 
-7.53192450 125.55213737 1591.45 
-7.53192450 126.00129501 1219.32 
-7.53192450 141.27265484 2352.83 
-7.53192450 141.72181248 2460.49 
-7.53192450 142.17097013 2237.45 
-7.53192450 142.62012777 2061.86 
-7.53192450 143.06928541 2429.69 
-7.53192450 143.51844305 3051.27 
-7.53192450 143.96760069 3726.25 
-7.53192450 144.41675834 3898.92 
-7.53192450 144.86591598 4023.85 
-7.53192450 145.31507362 4187.85 
-7.53192450 145.76423126 3408.53 
-7.53192450 148.45917711 2333.00 
-7.08276686 -75.67048627 3576.83 
-7.08276686 -75.22132863 4377.30 
-7.08276686 -74.77217099 2660.30 
-7.08276686 -73.42469806 2589.56 
-7.08276686 -72.97554042 2840.47 
-7.08276686 -72.52638278 2818.59 
-7.08276686 -72.07722514 2574.07 
-7.08276686 -71.62806749 2283.50 
-7.08276686 -34.34798320 1572.81 
-7.08276686 -33.89882556 1625.95 
-7.08276686 -33.44966792 1521.75 
-7.08276686 -33.00051028 1506.29 
-7.08276686 -32.55135264 1461.99 
-7.08276686 -32.10219499 1393.09 
-7.08276686 -31.65303735 1296.19 
-7.08276686 -31.20387971 1172.49 
-7.08276686 -30.75472207 982.46 
-7.08276686 4.27957401 885.46 
-7.08276686 4.72873166 1025.80 
-7.08276686 5.17788930 1168.35 
-7.08276686 5.62704694 1352.40 
-7.08276686 6.07620458 1597.34 
-7.08276686 6.52536222 1667.60 
-7.08276686 6.97451987 1742.25 
-7.08276686 7.42367751 1838.76 
-7.08276686 7.87283515 1946.02 
-7.08276686 8.32199279 2048.00 
-7.08276686 8.77115043 2134.39 
-7.08276686 9.22030808 2210.12 
-7.08276686 9.66946572 2293.97 
-7.08276686 10.11862336 2409.48 
-7.08276686 10.56778100 2575.19 
-7.08276686 11.01693864 2795.61 
-7.08276686 11.46609629 3048.57 
-7.08276686 11.91525393 3285.32 
-7.08276686 12.36441157 3452.99 
-7.08276686 12.81356921 3002.76 
-7.08276686 38.41555481 3864.95 
-7.08276686 38.86471245 3483.79 
-7.08276686 39.31387009 3155.98 
-7.08276686 39.76302774 2883.60 
-7.08276686 40.21218538 2668.02 
-7.08276686 40.66134302 2508.15 
-7.08276686 41.11050066 2399.86 
-7.08276686 41.55965830 2336.98 
-7.08276686 42.00881595 2312.31 
-7.08276686 42.45797359 2318.84 
-7.08276686 42.90713123 2350.21 
-7.08276686 43.35628887 2401.17 
-7.08276686 43.80544651 2466.97 
-7.08276686 44.25460416 1948.12 
-7.08276686 44.70376180 1504.67 
-7.08276686 51.44112643 1037.62 
-7.08276686 51.89028407 1020.28 
-7.08276686 52.33944171 989.76 
-7.08276686 103.99257055 1501.99 
-7.08276686 104.44172819 1982.39 
-7.08276686 104.89088583 1925.86 
-7.08276686 105.34004348 2304.11 
-7.08276686 105.78920112 2428.18 
-7.08276686 106.23835876 2502.10 
-7.08276686 106.68751640 2444.67 
-7.08276686 107.13667405 1993.23 
-7.08276686 107.58583169 1712.45 
-7.08276686 108.03498933 1710.54 
-7.08276686 108.48414697 1696.08 
-7.08276686 108.93330461 1854.97 
-7.08276686 109.38246226 2131.52 
-7.08276686 109.83161990 1985.00 
-7.08276686 110.28077754 1876.50 
-7.08276686 110.72993518 1936.60 
-7.08276686 111.17909282 2351.93 
-7.08276686 111.62825047 2916.45 
-7.08276686 112.07740811 3203.98 
-7.08276686 112.52656575 3245.09 
-7.08276686 112.97572339 3301.33 
-7.08276686 113.42488103 3365.85 
-7.08276686 113.87403868 3427.01 
-7.08276686 114.32319632 3472.86 
-7.08276686 114.77235396 3467.89 
-7.08276686 115.22151160 3036.66 
-7.08276686 115.67066924 2875.67 
-7.08276686 116.11982689 2978.66 
-7.08276686 116.56898453 3121.28 
-7.08276686 117.01814217 2992.76 
-7.08276686 117.46729981 2775.10 
-7.08276686 117.91645745 2601.05 
-7.08276686 118.36561510 2355.33 
-7.08276686 118.81477274 2003.66 
-7.08276686 119.26393038 1535.19 
-7.08276686 123.30634916 1366.08 
-7.08276686 123.75550680 1575.69 
-7.08276686 124.20466444 1596.12 
-7.08276686 124.65382209 1640.31 
-7.08276686 125.10297973 1676.29 
-7.08276686 125.55213737 1632.27 
-7.08276686 126.00129501 1406.47 
-7.08276686 140.82349720 2529.35 
-7.08276686 141.27265484 3122.22 
-7.08276686 141.72181248 3136.91 
-7.08276686 142.17097013 2741.86 
-7.08276686 142.62012777 2429.51 
-7.08276686 143.06928541 2119.79 
-7.08276686 143.51844305 2205.35 
-7.08276686 143.96760069 2413.46 
-7.08276686 144.41675834 3070.31 
-7.08276686 144.86591598 2894.92 
-7.08276686 145.31507362 2299.76 
-6.63360922 -75.67048627 3334.16 
-6.63360922 -75.22132863 4177.15 
-6.63360922 -74.77217099 3290.35 
-6.63360922 -73.87385570 2847.17 
-6.63360922 -73.42469806 3439.11 
-6.63360922 -72.97554042 3287.01 
-6.63360922 -72.52638278 2918.14 
-6.63360922 -72.07722514 2495.79 
-6.63360922 -34.34798320 1562.40 
-6.63360922 -33.89882556 1615.52 
-6.63360922 -33.44966792 1518.37 
-6.63360922 -33.00051028 1455.12 
-6.63360922 -32.55135264 1350.07 
-6.63360922 -32.10219499 1269.44 
-6.63360922 -31.65303735 1151.43 
-6.63360922 -31.20387971 1003.89 
-6.63360922 3.83041637 784.72 
-6.63360922 4.27957401 915.07 
-6.63360922 4.72873166 1060.46 
-6.63360922 5.17788930 1219.05 
-6.63360922 5.62704694 1403.42 
-6.63360922 6.07620458 1620.32 
-6.63360922 6.52536222 1675.88 
-6.63360922 6.97451987 1760.14 
-6.63360922 7.42367751 1870.52 
-6.63360922 7.87283515 1994.54 
-6.63360922 8.32199279 2111.53 
-6.63360922 8.77115043 2204.99 
-6.63360922 9.22030808 2277.32 
-6.63360922 9.66946572 2350.39 
-6.63360922 10.11862336 2455.16 
-6.63360922 10.56778100 2619.83 
-6.63360922 11.01693864 2860.58 
-6.63360922 11.46609629 3166.42 
-6.63360922 11.91525393 3491.38 
-6.63360922 12.36441157 3578.05 
-6.63360922 12.81356921 2272.81 
-6.63360922 38.41555481 3915.80 
-6.63360922 38.86471245 3488.58 
-6.63360922 39.31387009 3124.94 
-6.63360922 39.76302774 2826.25 
-6.63360922 40.21218538 2592.74 
-6.63360922 40.66134302 2421.81 
-6.63360922 41.11050066 2307.67 
-6.63360922 41.55965830 2242.59 
-6.63360922 42.00881595 2218.14 
-6.63360922 42.45797359 2226.19 
-6.63360922 42.90713123 2259.35 
-6.63360922 43.35628887 2311.59 
-6.63360922 43.80544651 2377.96 
-6.63360922 44.25460416 2066.09 
-6.63360922 44.70376180 1559.32 
-6.63360922 45.15291944 1366.70 
-6.63360922 51.44112643 1048.89 
-6.63360922 51.89028407 1036.09 
-6.63360922 52.33944171 1008.60 
-6.63360922 52.78859936 957.98 
-6.63360922 103.54341291 1667.28 
-6.63360922 103.99257055 2154.10 
-6.63360922 104.44172819 2388.83 
-6.63360922 104.89088583 1875.26 
-6.63360922 105.34004348 1525.61 
-6.63360922 105.78920112 1489.76 
-6.63360922 106.23835876 1900.21 
-6.63360922 106.68751640 2083.30 
-6.63360922 107.13667405 2094.86 
-6.63360922 107.58583169 2187.93 
-6.63360922 108.03498933 2163.63 
-6.63360922 108.48414697 2158.86 
-6.63360922 108.93330461 1987.07 
-6.63360922 109.38246226 1850.91 
-6.63360922 109.83161990 1644.78 
-6.63360922 110.72993518 1586.95 
-6.63360922 111.17909282 2068.82 
-6.63360922 111.62825047 2479.29 
-6.63360922 112.07740811 2463.21 
-6.63360922 112.52656575 2431.02 
-6.63360922 112.97572339 2780.00 
-6.63360922 113.42488103 2881.09 
-6.63360922 113.87403868 2922.42 
-6.63360922 114.32319632 2765.20 
-6.63360922 114.77235396 2644.79 
-6.63360922 115.22151160 2610.89 
-6.63360922 115.67066924 2648.91 
-6.63360922 116.11982689 2821.14 
-6.63360922 116.56898453 2930.32 
-6.63360922 117.01814217 2779.39 
-6.63360922 117.46729981 2600.87 
-6.63360922 117.91645745 2568.46 
-6.63360922 118.36561510 2521.63 
-6.63360922 118.81477274 2192.59 
-6.63360922 119.26393038 1803.68 
-6.63360922 121.50971859 1481.39 
-6.63360922 125.55213737 1363.26 
-6.63360922 126.00129501 1308.71 
-6.63360922 139.92518192 2112.49 
-6.63360922 140.37433956 2639.35 
-6.63360922 140.82349720 3279.81 
-6.63360922 141.27265484 3654.23 
-6.63360922 141.72181248 3700.23 
-6.63360922 142.17097013 3161.26 
-6.63360922 142.62012777 2629.94 
-6.18445157 -76.11964392 3562.22 
-6.18445157 -75.67048627 4584.27 
-6.18445157 -75.22132863 4839.63 
-6.18445157 -74.77217099 4461.04 
-6.18445157 -74.32301335 3783.93 
-6.18445157 -73.87385570 3951.00 
-6.18445157 -73.42469806 3947.66 
-6.18445157 -72.97554042 3341.35 
-6.18445157 -72.52638278 2639.92 
-6.18445157 -45.12776661 2717.74 
-6.18445157 -44.67860897 2698.16 
-6.18445157 -44.22945133 2623.96 
-6.18445157 -43.78029369 2557.05 
-6.18445157 -43.33113604 2265.46 
-6.18445157 -34.34798320 1576.49 
-6.18445157 -33.89882556 1639.30 
-6.18445157 -33.44966792 1539.84 
-6.18445157 -33.00051028 1454.60 
-6.18445157 -32.55135264 1339.61 
-6.18445157 -32.10219499 1242.32 
-6.18445157 -31.65303735 1135.04 
-6.18445157 -31.20387971 984.87 
-6.18445157 3.83041637 789.00 
-6.18445157 4.27957401 918.20 
-6.18445157 4.72873166 1066.50 
-6.18445157 5.17788930 1240.39 
-6.18445157 5.62704694 1422.70 
-6.18445157 6.07620458 1629.34 
-6.18445157 6.52536222 1690.91 
-6.18445157 6.97451987 1781.91 
-6.18445157 7.42367751 1900.98 
-6.18445157 7.87283515 2035.27 
-6.18445157 8.32199279 2161.52 
-6.18445157 8.77115043 2259.03 
-6.18445157 9.22030808 2327.95 
-6.18445157 9.66946572 2391.47 
-6.18445157 10.11862336 2485.02 
-6.18445157 10.56778100 2642.60 
-6.18445157 11.01693864 2887.66 
-6.18445157 11.46609629 3217.95 
-6.18445157 11.91525393 3595.26 
-6.18445157 12.36441157 2992.93 
-6.18445157 38.41555481 3367.87 
-6.18445157 38.86471245 3535.16 
-6.18445157 39.31387009 3136.13 
-6.18445157 39.76302774 2810.87 
-6.18445157 40.21218538 2558.52 
-6.18445157 40.66134302 2374.68 
-6.18445157 41.11050066 2251.63 
-6.18445157 41.55965830 2179.88 
-6.18445157 42.00881595 2149.62 
-6.18445157 42.45797359 2151.69 
-6.18445157 42.90713123 2177.93 
-6.18445157 43.35628887 2221.86 
-6.18445157 43.80544651 2278.66 
-6.18445157 44.25460416 2330.47 
-6.18445157 44.70376180 1850.70 
-6.18445157 45.15291944 1519.04 
-6.18445157 45.60207708 1361.83 
-6.18445157 51.44112643 1053.80 
-6.18445157 51.89028407 1042.61 
-6.18445157 52.33944171 1019.74 
-6.18445157 52.78859936 977.58 
-6.18445157 53.23775700 919.97 
-6.18445157 103.09425527 1742.10 
-6.18445157 103.54341291 2350.34 
-6.18445157 103.99257055 2335.56 
-6.18445157 104.44172819 2005.24 
-6.18445157 104.89088583 1464.61 
-6.18445157 106.23835876 1346.53 
-6.18445157 106.68751640 1614.09 
-6.18445157 107.13667405 1976.40 
-6.18445157 107.58583169 2128.23 
-6.18445157 108.03498933 2091.29 
-6.18445157 108.48414697 1971.25 
-6.18445157 108.93330461 1718.65 
-6.18445157 109.38246226 1502.59 
-6.18445157 111.17909282 1862.25 
-6.18445157 111.62825047 2207.35 
-6.18445157 112.07740811 1965.60 
-6.18445157 112.52656575 1679.52 
-6.18445157 112.97572339 1906.58 
-6.18445157 113.42488103 2050.69 
-6.18445157 113.87403868 2134.91 
-6.18445157 114.32319632 2045.80 
-6.18445157 114.77235396 1975.77 
-6.18445157 115.22151160 2113.46 
-6.18445157 115.67066924 2225.14 
-6.18445157 116.11982689 2397.71 
-6.18445157 116.56898453 2513.15 
-6.18445157 117.01814217 2440.33 
-6.18445157 117.46729981 2325.54 
-6.18445157 117.91645745 2328.38 
-6.18445157 118.36561510 2348.04 
-6.18445157 118.81477274 2186.89 
-6.18445157 119.26393038 1877.19 
-6.18445157 121.50971859 2035.26 
-6.18445157 139.02686663 2036.97 
-6.18445157 139.47602427 2373.62 
-6.18445157 139.92518192 2793.93 
-6.18445157 140.37433956 3238.38 
-6.18445157 140.82349720 3611.73 
-6.18445157 141.27265484 3777.07 
-6.18445157 141.72181248 3638.79 
-6.18445157 142.17097013 2942.91 
-6.18445157 142.62012777 2220.00 
-5.73529393 -77.01795920 2777.75 
-5.73529393 -76.56880156 4974.83 
-5.73529393 -76.11964392 4824.65 
-5.73529393 -75.67048627 4733.88 
-5.73529393 -75.22132863 4692.45 
-5.73529393 -74.77217099 4683.75 
-5.73529393 -74.32301335 4689.20 
-5.73529393 -73.87385570 4692.39 
-5.73529393 -73.42469806 4102.39 
-5.73529393 -72.97554042 3061.37 
-5.73529393 -66.23817579 2687.64 
-5.73529393 -65.78901815 2806.10 
-5.73529393 -45.57692426 2789.32 
-5.73529393 -45.12776661 2895.82 
-5.73529393 -44.67860897 2874.28 
-5.73529393 -44.22945133 2782.66 
-5.73529393 -43.78029369 2683.64 
-5.73529393 -43.33113604 2384.28 
-5.73529393 -34.34798320 1604.92 
-5.73529393 -33.89882556 1657.79 
-5.73529393 -33.44966792 1595.32 
-5.73529393 -33.00051028 1484.76 
-5.73529393 -32.55135264 1381.53 
-5.73529393 -32.10219499 1278.32 
-5.73529393 -31.65303735 1194.18 
-5.73529393 -31.20387971 1071.98 
-5.73529393 3.83041637 771.26 
-5.73529393 4.27957401 901.25 
-5.73529393 4.72873166 1056.50 
-5.73529393 5.17788930 1241.38 
-5.73529393 5.62704694 1434.93 
-5.73529393 6.07620458 1630.84 
-5.73529393 6.52536222 1708.24 
-5.73529393 6.97451987 1802.10 
-5.73529393 7.42367751 1922.97 
-5.73529393 7.87283515 2058.55 
-5.73529393 8.32199279 2185.84 
-5.73529393 8.77115043 2283.75 
-5.73529393 9.22030808 2351.68 
-5.73529393 9.66946572 2412.18 
-5.73529393 10.11862336 2501.22 
-5.73529393 10.56778100 2654.03 
-5.73529393 11.01693864 2896.05 
-5.73529393 11.46609629 3228.14 
-5.73529393 11.91525393 3617.54 
-5.73529393 12.36441157 2477.15 
-5.73529393 38.86471245 3633.95 
-5.73529393 39.31387009 3200.29 
-5.73529393 39.76302774 2847.01 
-5.73529393 40.21218538 2573.23 
-5.73529393 40.66134302 2373.27 
-5.73529393 41.11050066 2237.61 
-5.73529393 41.55965830 2155.07 
-5.73529393 42.00881595 2114.47 
-5.73529393 42.45797359 2105.65 
-5.73529393 42.90713123 2119.79 
-5.73529393 43.35628887 2150.09 
-5.73529393 43.80544651 2191.82 
-5.73529393 44.25460416 2241.78 
-5.73529393 44.70376180 2255.54 
-5.73529393 45.15291944 1735.45 
-5.73529393 45.60207708 1415.91 
-5.73529393 46.05123473 1305.15 
-5.73529393 46.50039237 1276.72 
-5.73529393 51.44112643 1053.24 
-5.73529393 51.89028407 1042.85 
-5.73529393 52.33944171 1021.36 
-5.73529393 52.78859936 985.37 
-5.73529393 53.23775700 936.81 
-5.73529393 53.68691464 881.31 
-5.73529393 102.64509762 1695.89 
-5.73529393 103.09425527 2531.21 
-5.73529393 103.54341291 2781.67 
-5.73529393 103.99257055 2056.42 
-5.73529393 107.13667405 1575.53 
-5.73529393 107.58583169 1720.63 
-5.73529393 108.03498933 1582.54 
-5.73529393 111.17909282 1650.30 
-5.73529393 111.62825047 2015.81 
-5.73529393 112.07740811 1712.42 
-5.73529393 112.52656575 1427.59 
-5.73529393 112.97572339 1567.57 
-5.73529393 113.42488103 1736.97 
-5.73529393 113.87403868 1716.25 
-5.73529393 114.32319632 1614.96 
-5.73529393 114.77235396 1551.77 
-5.73529393 115.22151160 1651.21 
-5.73529393 115.67066924 1762.58 
-5.73529393 116.11982689 1895.31 
-5.73529393 116.56898453 2001.86 
-5.73529393 117.01814217 2052.78 
-5.73529393 117.46729981 2085.93 
-5.73529393 117.91645745 2125.93 
-5.73529393 118.36561510 2079.42 
-5.73529393 118.81477274 2077.16 
-5.73529393 121.50971859 2610.80 
-5.73529393 134.53529021 2540.11 
-5.73529393 134.98444785 2589.65 
-5.73529393 135.43360549 2407.76 
-5.73529393 135.88276314 2412.07 
-5.73529393 136.33192078 2454.70 
-5.73529393 136.78107842 2485.84 
-5.73529393 137.23023606 2635.10 
-5.73529393 137.67939371 2634.59 
-5.73529393 138.12855135 2580.85 
-5.73529393 138.57770899 2635.64 
-5.73529393 139.02686663 2867.40 
-5.73529393 139.47602427 3154.62 
-5.73529393 139.92518192 3346.19 
-5.73529393 140.37433956 3543.20 
-5.73529393 140.82349720 3528.28 
-5.73529393 141.27265484 3453.26 
-5.73529393 141.72181248 3052.14 
-5.73529393 142.17097013 2134.36 
-5.73529393 146.66254655 2163.75 
-5.28613629 -77.46711684 2817.81 
-5.28613629 -77.01795920 5105.56 
-5.28613629 -76.56880156 4889.44 
-5.28613629 -76.11964392 4735.50 
-5.28613629 -75.67048627 4643.99 
-5.28613629 -75.22132863 4605.46 
-5.28613629 -74.77217099 4604.19 
-5.28613629 -74.32301335 4622.18 
-5.28613629 -73.87385570 4642.87 
-5.28613629 -73.42469806 3899.28 
-5.28613629 -72.97554042 2753.08 
-5.28613629 -66.68733343 2646.84 
-5.28613629 -66.23817579 3035.05 
-5.28613629 -65.78901815 3122.14 
-5.28613629 -65.33986051 3077.76 
-5.28613629 -64.89070286 3075.07 
-5.28613629 -45.57692426 2872.07 
-5.28613629 -45.12776661 2972.59 
-5.28613629 -44.67860897 2915.88 
-5.28613629 -44.22945133 2800.04 
-5.28613629 -43.78029369 2652.80 
-5.28613629 -43.33113604 2356.53 
-5.28613629 -34.79714085 1450.05 
-5.28613629 -34.34798320 1628.79 
-5.28613629 -33.89882556 1631.30 
-5.28613629 -33.44966792 1553.34 
-5.28613629 -33.00051028 1446.18 
-5.28613629 -32.55135264 1356.66 
-5.28613629 -32.10219499 1262.00 
-5.28613629 -31.65303735 1208.13 
-5.28613629 -31.20387971 1139.63 
-5.28613629 -30.75472207 954.10 
-5.28613629 3.83041637 722.32 
-5.28613629 4.27957401 883.21 
-5.28613629 4.72873166 1050.17 
-5.28613629 5.17788930 1211.50 
-5.28613629 5.62704694 1391.63 
-5.28613629 6.07620458 1605.55 
-5.28613629 6.52536222 1723.81 
-5.28613629 6.97451987 1816.67 
-5.28613629 7.42367751 1933.00 
-5.28613629 7.87283515 2061.89 
-5.28613629 8.32199279 2183.51 
-5.28613629 8.77115043 2280.11 
-5.28613629 9.22030808 2351.90 
-5.28613629 9.66946572 2419.10 
-5.28613629 10.11862336 2514.56 
-5.28613629 10.56778100 2670.86 
-5.28613629 11.01693864 2911.33 
-5.28613629 11.46609629 3235.14 
-5.28613629 11.91525393 3253.75 
-5.28613629 15.05935742 3001.06 
-5.28613629 15.50851507 3387.73 
-5.28613629 15.95767271 3248.68 
-5.28613629 16.40683035 2879.42 
-5.28613629 38.86471245 3804.22 
-5.28613629 39.31387009 3336.59 
-5.28613629 39.76302774 2951.18 
-5.28613629 40.21218538 2649.79 
-5.28613629 40.66134302 2426.94 
-5.28613629 41.11050066 2272.11 
-5.28613629 41.55965830 2172.73 
-5.28613629 42.00881595 2116.43 
-5.28613629 42.45797359 2092.12 
-5.28613629 42.90713123 2090.41 
-5.28613629 43.35628887 2104.16 
-5.28613629 43.80544651 2128.48 
-5.28613629 44.25460416 2160.22 
-5.28613629 44.70376180 2196.98 
-5.28613629 45.15291944 1907.40 
-5.28613629 45.60207708 1496.46 
-5.28613629 46.05123473 1344.05 
-5.28613629 46.50039237 1291.37 
-5.28613629 46.94955001 1254.62 
-5.28613629 47.39870765 1240.34 
-5.28613629 51.44112643 1046.02 
-5.28613629 51.89028407 1036.17 
-5.28613629 52.33944171 1015.59 
-5.28613629 52.78859936 984.71 
-5.28613629 53.23775700 943.96 
-5.28613629 53.68691464 892.02 
-5.28613629 54.13607228 841.38 
-5.28613629 93.21278714 938.31 
-5.28613629 93.66194478 1023.65 
-5.28613629 102.19593998 1588.74 
-5.28613629 102.64509762 2421.31 
-5.28613629 103.09425527 2911.94 
-5.28613629 103.54341291 2770.79 
-5.28613629 103.99257055 1795.93 
-5.28613629 111.62825047 1665.00 
-5.28613629 112.07740811 1468.75 
-5.28613629 112.97572339 1414.81 
-5.28613629 113.42488103 1584.09 
-5.28613629 113.87403868 1456.58 
-5.28613629 116.11982689 1504.05 
-5.28613629 116.56898453 1634.25 
-5.28613629 117.01814217 1818.31 
-5.28613629 117.46729981 2005.63 
-5.28613629 117.91645745 2214.11 
-5.28613629 118.36561510 2271.77 
-5.28613629 118.81477274 2292.57 
-5.28613629 119.26393038 1960.01 
-5.28613629 121.50971859 2590.03 
-5.28613629 134.08613257 2278.67 
-5.28613629 134.53529021 3278.71 
-5.28613629 134.98444785 3418.04 
-5.28613629 135.43360549 3156.09 
-5.28613629 135.88276314 3191.37 
-5.28613629 136.33192078 3302.61 
-5.28613629 136.78107842 3318.46 
-5.28613629 137.23023606 3150.59 
-5.28613629 137.67939371 3095.79 
-5.28613629 138.12855135 3041.83 
-5.28613629 138.57770899 3163.86 
-5.28613629 139.02686663 3407.64 
-5.28613629 139.47602427 3571.62 
-5.28613629 139.92518192 3462.15 
-5.28613629 140.37433956 3143.59 
-5.28613629 140.82349720 2842.18 
-5.28613629 141.27265484 2671.04 
-5.28613629 141.72181248 2184.98 
-5.28613629 146.66254655 2278.02 
-4.83697865 -77.91627448 3128.48 
-4.83697865 -77.46711684 5290.36 
-4.83697865 -77.01795920 5039.56 
-4.83697865 -76.56880156 4832.46 
-4.83697865 -76.11964392 4683.57 
-4.83697865 -75.67048627 4594.58 
-4.83697865 -75.22132863 4557.95 
-4.83697865 -74.77217099 4559.99 
-4.83697865 -74.32301335 4584.40 
-4.83697865 -73.87385570 4370.87 
-4.83697865 -73.42469806 3418.84 
-4.83697865 -72.97554042 2485.62 
-4.83697865 -66.68733343 2684.38 
-4.83697865 -66.23817579 3076.67 
-4.83697865 -65.78901815 3150.36 
-4.83697865 -65.33986051 3111.14 
-4.83697865 -64.89070286 3098.56 
-4.83697865 -45.57692426 2837.04 
-4.83697865 -45.12776661 2870.48 
-4.83697865 -44.67860897 2764.99 
-4.83697865 -44.22945133 2627.54 
-4.83697865 -43.78029369 2467.96 
-4.83697865 -43.33113604 2179.75 
-4.83697865 -37.49208670 1898.41 
-4.83697865 -37.04292906 2139.34 
-4.83697865 -36.59377141 2137.29 
-4.83697865 -36.14461377 1882.37 
-4.83697865 -35.69545613 1596.00 
-4.83697865 -35.24629849 1544.93 
-4.83697865 -34.79714085 1615.19 
-4.83697865 -34.34798320 1613.39 
-4.83697865 -33.89882556 1556.89 
-4.83697865 -33.44966792 1433.81 
-4.83697865 -33.00051028 1344.67 
-4.83697865 -32.55135264 1277.76 
-4.83697865 -32.10219499 1208.52 
-4.83697865 -31.65303735 1176.17 
-4.83697865 -31.20387971 1130.08 
-4.83697865 -30.75472207 1010.41 
-4.83697865 4.27957401 850.72 
-4.83697865 4.72873166 1030.53 
-4.83697865 5.17788930 1147.66 
-4.83697865 5.62704694 1297.22 
-4.83697865 6.07620458 1560.45 
-4.83697865 6.52536222 1735.57 
-4.83697865 6.97451987 1825.29 
-4.83697865 7.42367751 1933.88 
-4.83697865 7.87283515 2052.68 
-4.83697865 8.32199279 2166.73 
-4.83697865 8.77115043 2263.61 
-4.83697865 9.22030808 2345.09 
-4.83697865 9.66946572 2428.21 
-4.83697865 10.11862336 2540.71 
-4.83697865 10.56778100 2710.18 
-4.83697865 11.01693864 2955.39 
-4.83697865 11.46609629 3271.26 
-4.83697865 11.91525393 2566.40 
-4.83697865 14.16104214 2419.14 
-4.83697865 14.61019978 4057.71 
-4.83697865 15.05935742 4649.66 
-4.83697865 15.50851507 4768.13 
-4.83697865 15.95767271 4570.07 
-4.83697865 16.40683035 4286.07 
-4.83697865 16.85598799 3973.49 
-4.83697865 17.30514563 3596.52 
-4.83697865 24.04251026 2991.08 
-4.83697865 24.49166791 2735.64 
-4.83697865 38.86471245 2982.80 
-4.83697865 39.31387009 3565.56 
-4.83697865 39.76302774 3141.88 
-4.83697865 40.21218538 2802.74 
-4.83697865 40.66134302 2545.75 
-4.83697865 41.11050066 2360.99 
-4.83697865 41.55965830 2235.32 
-4.83697865 42.00881595 2155.55 
-4.83697865 42.45797359 2109.87 
-4.83697865 42.90713123 2088.36 
-4.83697865 43.35628887 2083.35 
-4.83697865 43.80544651 2089.47 
-4.83697865 44.25460416 2103.04 
-4.83697865 44.70376180 2121.36 
-4.83697865 45.15291944 1978.57 
-4.83697865 45.60207708 1621.15 
-4.83697865 46.05123473 1434.46 
-4.83697865 46.50039237 1333.60 
-4.83697865 46.94955001 1268.24 
-4.83697865 47.39870765 1233.11 
-4.83697865 51.44112643 1033.48 
-4.83697865 51.89028407 1022.69 
-4.83697865 52.33944171 1001.93 
-4.83697865 52.78859936 973.46 
-4.83697865 53.23775700 936.77 
-4.83697865 53.68691464 891.12 
-4.83697865 54.13607228 839.79 
-4.83697865 80.18721552 1255.01 
-4.83697865 84.67879194 871.00 
-4.83697865 85.12794958 893.59 
-4.83697865 85.57710723 866.23 
-4.83697865 86.02626487 809.92 
-4.83697865 86.47542251 754.43 
-4.83697865 92.31447186 792.22 
-4.83697865 92.76362950 886.74 
-4.83697865 93.21278714 1035.70 
-4.83697865 93.66194478 1082.44 
-4.83697865 94.11110243 903.29 
-4.83697865 102.19593998 2252.52 
-4.83697865 102.64509762 2899.89 
-4.83697865 103.09425527 2627.67 
-4.83697865 103.54341291 1978.71 
-4.83697865 103.99257055 1564.89 
-4.83697865 104.44172819 1380.34 
-4.83697865 113.42488103 1486.64 
-4.83697865 116.56898453 1517.47 
-4.83697865 117.01814217 1708.00 
-4.83697865 117.46729981 2084.20 
-4.83697865 117.91645745 2511.66 
-4.83697865 118.36561510 2803.26 
-4.83697865 118.81477274 3004.09 
-4.83697865 119.26393038 2240.63 
-4.83697865 134.08613257 2979.93 
-4.83697865 134.53529021 3977.99 
-4.83697865 134.98444785 4121.22 
-4.83697865 135.43360549 3899.99 
-4.83697865 135.88276314 3844.14 
-4.83697865 136.33192078 4092.19 
-4.83697865 136.78107842 4069.73 
-4.83697865 137.23023606 3457.11 
-4.83697865 137.67939371 3010.73 
-4.83697865 138.12855135 2971.97 
-4.83697865 138.57770899 3145.76 
-4.83697865 139.02686663 3473.57 
-4.83697865 139.47602427 3590.62 
-4.83697865 139.92518192 2888.55 
-4.38782101 -77.91627448 4495.42 
-4.38782101 -77.46711684 5181.12 
-4.38782101 -77.01795920 4963.74 
-4.38782101 -76.56880156 4778.72 
-4.38782101 -76.11964392 4643.20 
-4.38782101 -75.67048627 4561.64 
-4.38782101 -75.22132863 4529.18 
-4.38782101 -74.77217099 4534.70 
-4.38782101 -74.32301335 4517.83 
-4.38782101 -73.87385570 3775.32 
-4.38782101 -73.42469806 3007.03 
-4.38782101 -66.23817579 2849.04 
-4.38782101 -65.78901815 2942.08 
-4.38782101 -45.57692426 2517.28 
-4.38782101 -45.12776661 2521.29 
-4.38782101 -44.67860897 2423.51 
-4.38782101 -37.94124434 1462.60 
-4.38782101 -37.49208670 2325.28 
-4.38782101 -37.04292906 2622.41 
-4.38782101 -36.59377141 2602.92 
-4.38782101 -36.14461377 2339.89 
-4.38782101 -35.69545613 2007.38 
-4.38782101 -35.24629849 1894.12 
-4.38782101 -34.79714085 1809.89 
-4.38782101 -34.34798320 1715.04 
-4.38782101 -33.89882556 1638.53 
-4.38782101 -33.44966792 1501.26 
-4.38782101 -33.00051028 1389.38 
-4.38782101 -32.55135264 1269.82 
-4.38782101 -32.10219499 1215.55 
-4.38782101 -31.65303735 1186.19 
-4.38782101 -31.20387971 1143.58 
-4.38782101 -30.75472207 1083.81 
-4.38782101 -30.30556443 991.10 
-4.38782101 -29.85640678 907.00 
-4.38782101 4.27957401 766.58 
-4.38782101 4.72873166 949.89 
-4.38782101 5.17788930 1010.35 
-4.38782101 5.62704694 1136.16 
-4.38782101 6.07620458 1433.11 
-4.38782101 6.52536222 1743.28 
-4.38782101 6.97451987 1830.01 
-4.38782101 7.42367751 1931.53 
-4.38782101 7.87283515 2041.75 
-4.38782101 8.32199279 2150.85 
-4.38782101 8.77115043 2251.81 
-4.38782101 9.22030808 2347.84 
-4.38782101 9.66946572 2453.01 
-4.38782101 10.11862336 2589.54 
-4.38782101 10.56778100 2779.27 
-4.38782101 11.01693864 3035.37 
-4.38782101 11.46609629 3204.45 
-4.38782101 14.16104214 2774.94 
-4.38782101 14.61019978 4712.51 
-4.38782101 15.05935742 4920.89 
-4.38782101 15.50851507 5075.38 
-4.38782101 15.95767271 5003.24 
-4.38782101 16.40683035 4904.98 
-4.38782101 16.85598799 4439.39 
-4.38782101 17.30514563 3923.66 
-4.38782101 17.75430328 3248.26 
-4.38782101 23.59335262 3521.10 
-4.38782101 24.04251026 3487.65 
-4.38782101 24.49166791 3218.84 
-4.38782101 24.94082555 2705.34 
-4.38782101 39.31387009 3893.58 
-4.38782101 39.76302774 3426.75 
-4.38782101 40.21218538 3037.83 
-4.38782101 40.66134302 2732.15 
-4.38782101 41.11050066 2503.23 
-4.38782101 41.55965830 2338.92 
-4.38782101 42.00881595 2225.92 
-4.38782101 42.45797359 2151.93 
-4.38782101 42.90713123 2106.44 
-4.38782101 43.35628887 2080.97 
-4.38782101 43.80544651 2069.13 
-4.38782101 44.25460416 2066.13 
-4.38782101 44.70376180 2068.28 
-4.38782101 45.15291944 2072.80 
-4.38782101 45.60207708 1829.89 
-4.38782101 46.05123473 1600.06 
-4.38782101 46.50039237 1422.31 
-4.38782101 46.94955001 1302.64 
-4.38782101 47.39870765 1238.85 
-4.38782101 47.84786529 1149.79 
-4.38782101 51.44112643 1016.26 
-4.38782101 51.89028407 1004.77 
-4.38782101 52.33944171 983.23 
-4.38782101 52.78859936 954.67 
-4.38782101 53.23775700 915.83 
-4.38782101 53.68691464 870.53 
-4.38782101 80.18721552 1392.96 
-4.38782101 80.63637316 1317.37 
-4.38782101 84.22963430 886.89 
-4.38782101 84.67879194 1117.01 
-4.38782101 85.12794958 1129.77 
-4.38782101 85.57710723 1075.61 
-4.38782101 86.02626487 988.78 
-4.38782101 86.47542251 902.25 
-4.38782101 86.92458015 783.34 
-4.38782101 90.96699893 759.81 
-4.38782101 91.41615657 874.14 
-4.38782101 91.86531422 900.42 
-4.38782101 92.31447186 913.41 
-4.38782101 92.76362950 964.02 
-4.38782101 93.21278714 1028.72 
-4.38782101 93.66194478 1054.22 
-4.38782101 94.11110243 915.34 
-4.38782101 101.74678234 1849.83 
-4.38782101 102.19593998 2297.90 
-4.38782101 102.64509762 2646.19 
-4.38782101 103.09425527 2183.12 
-4.38782101 103.54341291 1588.56 
-4.38782101 103.99257055 1689.53 
-4.38782101 104.44172819 1686.45 
-4.38782101 113.42488103 1488.89 
-4.38782101 113.87403868 1512.41 
-4.38782101 114.32319632 1468.18 
-4.38782101 116.56898453 1338.23 
-4.38782101 117.01814217 1467.92 
-4.38782101 117.46729981 1860.12 
-4.38782101 117.91645745 2592.38 
-4.38782101 118.36561510 2717.28 
-4.38782101 118.81477274 2941.78 
-4.38782101 119.26393038 2512.98 
-4.38782101 119.71308802 1995.84 
-4.38782101 120.16224566 2417.53 
-4.38782101 120.61140331 2776.50 
-4.38782101 133.63697493 2760.09 
-4.38782101 134.08613257 3893.30 
-4.38782101 134.53529021 4181.94 
-4.38782101 134.98444785 4193.74 
-4.38782101 135.43360549 3762.79 
-4.38782101 135.88276314 3590.51 
-4.38782101 136.33192078 3907.65 
-4.38782101 136.78107842 3947.34 
-4.38782101 137.23023606 3113.05 
-4.38782101 137.67939371 2452.44 
-4.38782101 138.12855135 2413.96 
-4.38782101 138.57770899 2637.04 
-4.38782101 139.02686663 2990.40 
-4.38782101 139.47602427 2975.36 
-3.93866336 -81.06037798 1963.52 
-3.93866336 -80.61122034 3198.34 
-3.93866336 -77.91627448 4548.01 
-3.93866336 -77.46711684 5047.09 
-3.93866336 -77.01795920 4872.61 
-3.93866336 -76.56880156 4716.74 
-3.93866336 -76.11964392 4600.13 
-3.93866336 -75.67048627 4530.54 
-3.93866336 -75.22132863 4505.98 
-3.93866336 -74.77217099 4482.95 
-3.93866336 -74.32301335 3865.49 
-3.93866336 -73.87385570 3332.28 
-3.93866336 -73.42469806 2790.85 
-3.93866336 -59.05165352 3552.77 
-3.93866336 -58.60249587 3690.62 
-3.93866336 -58.15333823 3338.19 
-3.93866336 -38.39040198 1520.72 
-3.93866336 -37.94124434 1923.18 
-3.93866336 -37.49208670 2244.84 
-3.93866336 -37.04292906 2426.28 
-3.93866336 -36.59377141 2359.27 
-3.93866336 -36.14461377 2278.44 
-3.93866336 -35.69545613 2186.82 
-3.93866336 -35.24629849 2092.04 
-3.93866336 -34.79714085 2004.33 
-3.93866336 -34.34798320 1932.76 
-3.93866336 -33.89882556 1882.48 
-3.93866336 -33.44966792 1843.85 
-3.93866336 -33.00051028 1641.84 
-3.93866336 -32.55135264 1385.39 
-3.93866336 -32.10219499 1284.90 
-3.93866336 -31.65303735 1241.46 
-3.93866336 -31.20387971 1220.18 
-3.93866336 -30.75472207 1168.19 
-3.93866336 -30.30556443 1084.33 
-3.93866336 -29.85640678 986.50 
-3.93866336 -29.40724914 871.03 
-3.93866336 4.72873166 783.49 
-3.93866336 5.17788930 813.98 
-3.93866336 5.62704694 935.13 
-3.93866336 6.07620458 1225.89 
-3.93866336 6.52536222 1713.70 
-3.93866336 6.97451987 1833.08 
-3.93866336 7.42367751 1930.74 
-3.93866336 7.87283515 2036.58 
-3.93866336 8.32199279 2145.18 
-3.93866336 8.77115043 2253.86 
-3.93866336 9.22030808 2366.98 
-3.93866336 9.66946572 2496.21 
-3.93866336 10.11862336 2658.96 
-3.93866336 10.56778100 2871.59 
-3.93866336 11.01693864 3141.78 
-3.93866336 11.46609629 1894.21 
-3.93866336 14.61019978 3229.64 
-3.93866336 15.05935742 3791.74 
-3.93866336 15.50851507 3975.25 
-3.93866336 15.95767271 4132.99 
-3.93866336 16.40683035 4239.43 
-3.93866336 16.85598799 3768.07 
-3.93866336 17.30514563 3047.74 
-3.93866336 23.59335262 3303.75 
-3.93866336 24.04251026 3380.68 
-3.93866336 24.49166791 3324.56 
-3.93866336 24.94082555 2956.54 
-3.93866336 39.31387009 4238.89 
-3.93866336 39.76302774 3791.43 
-3.93866336 40.21218538 3343.90 
-3.93866336 40.66134302 2975.46 
-3.93866336 41.11050066 2687.57 
-3.93866336 41.55965830 2471.73 
-3.93866336 42.00881595 2315.72 
-3.93866336 42.45797359 2207.07 
-3.93866336 42.90713123 2134.35 
-3.93866336 43.35628887 2087.80 
-3.93866336 43.80544651 2059.37 
-3.93866336 44.25460416 2042.57 
-3.93866336 44.70376180 2032.20 
-3.93866336 45.15291944 2024.34 
-3.93866336 45.60207708 2016.46 
-3.93866336 46.05123473 1870.07 
-3.93866336 46.50039237 1576.78 
-3.93866336 46.94955001 1383.28 
-3.93866336 47.39870765 1265.30 
-3.93866336 47.84786529 1159.23 
-3.93866336 48.29702294 1038.19 
-3.93866336 50.99196879 1006.79 
-3.93866336 51.44112643 996.32 
-3.93866336 51.89028407 985.16 
-3.93866336 52.33944171 965.83 
-3.93866336 52.78859936 932.87 
-3.93866336 53.23775700 887.52 
-3.93866336 80.18721552 1556.38 
-3.93866336 80.63637316 1617.61 
-3.93866336 81.08553081 1448.43 
-3.93866336 81.53468845 1272.42 
-3.93866336 81.98384609 1095.49 
-3.93866336 84.22963430 997.43 
-3.93866336 84.67879194 1266.55 
-3.93866336 85.12794958 1248.33 
-3.93866336 85.57710723 1149.66 
-3.93866336 86.02626487 1045.02 
-3.93866336 86.47542251 935.01 
-3.93866336 86.92458015 832.82 
-3.93866336 87.37373779 697.56 
-3.93866336 90.96699893 716.87 
-3.93866336 91.41615657 900.90 
-3.93866336 91.86531422 971.06 
-3.93866336 92.31447186 986.07 
-3.93866336 92.76362950 973.22 
-3.93866336 93.21278714 939.11 
-3.93866336 93.66194478 961.63 
-3.93866336 94.11110243 897.86 
-3.93866336 94.56026007 869.39 
-3.93866336 95.00941771 826.69 
-3.93866336 101.74678234 2047.49 
-3.93866336 102.19593998 1807.16 
-3.93866336 102.64509762 1804.61 
-3.93866336 103.09425527 1727.15 
-3.93866336 103.54341291 1790.17 
-3.93866336 103.99257055 1700.23 
-3.93866336 104.44172819 1507.98 
-3.93866336 113.42488103 1479.97 
-3.93866336 113.87403868 1611.24 
-3.93866336 114.32319632 1678.24 
-3.93866336 114.77235396 1614.80 
-3.93866336 117.46729981 1399.07 
-3.93866336 117.91645745 2461.95 
-3.93866336 118.36561510 2733.28 
-3.93866336 118.81477274 2890.94 
-3.93866336 119.26393038 2596.44 
-3.93866336 119.71308802 1997.50 
-3.93866336 120.16224566 2533.90 
-3.93866336 120.61140331 2738.63 
-3.93866336 132.73865964 2095.02 
-3.93866336 133.18781728 3208.35 
-3.93866336 133.63697493 3969.08 
-3.93866336 134.08613257 4013.80 
-3.93866336 134.53529021 4061.28 
-3.93866336 134.98444785 4043.48 
-3.93866336 135.43360549 2192.77 
-3.93866336 136.33192078 2265.84 
-3.93866336 136.78107842 2265.25 
-3.93866336 137.23023606 2016.29 
-3.93866336 139.02686663 2041.38 
-3.48950572 -81.06037798 3049.66 
-3.48950572 -80.61122034 3738.37 
-3.48950572 -80.16206269 3550.33 
-3.48950572 -77.91627448 3942.09 
-3.48950572 -77.46711684 4908.39 
-3.48950572 -77.01795920 4776.30 
-3.48950572 -76.56880156 4650.07 
-3.48950572 -76.11964392 4553.85 
-3.48950572 -75.67048627 4498.71 
-3.48950572 -75.22132863 4387.75 
-3.48950572 -74.77217099 3804.13 
-3.48950572 -74.32301335 3358.93 
-3.48950572 -73.87385570 3000.62 
-3.48950572 -73.42469806 2624.46 
-3.48950572 -59.50081116 3416.85 
-3.48950572 -59.05165352 3908.59 
-3.48950572 -58.60249587 4386.79 
-3.48950572 -58.15333823 4268.00 
-3.48950572 -57.70418059 3855.19 
-3.48950572 -38.83955962 1552.85 
-3.48950572 -38.39040198 2074.40 
-3.48950572 -37.94124434 2000.54 
-3.48950572 -37.49208670 1978.57 
-3.48950572 -37.04292906 2143.33 
-3.48950572 -36.59377141 2157.05 
-3.48950572 -36.14461377 2102.35 
-3.48950572 -35.69545613 2043.32 
-3.48950572 -35.24629849 1982.40 
-3.48950572 -34.79714085 1924.68 
-3.48950572 -34.34798320 1876.19 
-3.48950572 -33.89882556 1841.69 
-3.48950572 -33.44966792 1822.96 
-3.48950572 -33.00051028 1818.23 
-3.48950572 -32.55135264 1511.11 
-3.48950572 -32.10219499 1363.40 
-3.48950572 -31.65303735 1288.56 
-3.48950572 -31.20387971 1275.81 
-3.48950572 -30.75472207 1226.11 
-3.48950572 -30.30556443 1169.49 
-3.48950572 -29.85640678 1071.69 
-3.48950572 -29.40724914 944.75 
-3.48950572 5.62704694 832.84 
-3.48950572 6.07620458 1104.70 
-3.48950572 6.52536222 1523.61 
-3.48950572 6.97451987 1834.69 
-3.48950572 7.42367751 1931.73 
-3.48950572 7.87283515 2037.14 
-3.48950572 8.32199279 2148.69 
-3.48950572 8.77115043 2266.83 
-3.48950572 9.22030808 2396.72 
-3.48950572 9.66946572 2548.30 
-3.48950572 10.11862336 2734.94 
-3.48950572 10.56778100 2968.50 
-3.48950572 11.01693864 3135.66 
-3.48950572 15.50851507 2628.48 
-3.48950572 15.95767271 3034.20 
-3.48950572 16.40683035 3190.34 
-3.48950572 16.85598799 2774.31 
-3.48950572 20.44924913 3897.16 
-3.48950572 20.89840677 4201.52 
-3.48950572 21.34756441 4390.20 
-3.48950572 21.79672205 4547.62 
-3.48950572 22.24587970 4588.24 
-3.48950572 22.69503734 4274.45 
-3.48950572 23.14419498 3332.98 
-3.48950572 23.59335262 3036.47 
-3.48950572 24.04251026 3256.26 
-3.48950572 24.49166791 3514.74 
-3.48950572 24.94082555 3405.30 
-3.48950572 25.38998319 2779.73 
-3.48950572 39.31387009 4025.51 
-3.48950572 39.76302774 4184.49 
-3.48950572 40.21218538 3681.19 
-3.48950572 40.66134302 3244.66 
-3.48950572 41.11050066 2889.34 
-3.48950572 41.55965830 2614.04 
-3.48950572 42.00881595 2409.43 
-3.48950572 42.45797359 2263.16 
-3.48950572 42.90713123 2162.60 
-3.48950572 43.35628887 2096.15 
-3.48950572 43.80544651 2053.67 
-3.48950572 44.25460416 2026.60 
-3.48950572 44.70376180 2007.92 
-3.48950572 45.15291944 1992.30 
-3.48950572 45.60207708 1976.24 
-3.48950572 46.05123473 1958.32 
-3.48950572 46.50039237 1788.25 
-3.48950572 46.94955001 1509.91 
-3.48950572 47.39870765 1310.56 
-3.48950572 47.84786529 1178.19 
-3.48950572 48.29702294 1088.37 
-3.48950572 48.74618058 1006.42 
-3.48950572 50.54281115 979.92 
-3.48950572 50.99196879 988.79 
-3.48950572 51.44112643 981.62 
-3.48950572 51.89028407 973.02 
-3.48950572 52.33944171 952.67 
-3.48950572 52.78859936 912.79 
-3.48950572 53.23775700 856.83 
-3.48950572 79.73805788 1295.06 
-3.48950572 80.18721552 1645.95 
-3.48950572 80.63637316 1773.93 
-3.48950572 81.08553081 1750.42 
-3.48950572 81.53468845 1675.29 
-3.48950572 81.98384609 1392.88 
-3.48950572 82.43300373 1096.18 
-3.48950572 84.22963430 1078.58 
-3.48950572 84.67879194 1360.66 
-3.48950572 85.12794958 1324.28 
-3.48950572 85.57710723 1202.44 
-3.48950572 86.02626487 1084.59 
-3.48950572 86.47542251 964.27 
-3.48950572 86.92458015 875.66 
-3.48950572 87.37373779 744.70 
-3.48950572 91.41615657 888.08 
-3.48950572 91.86531422 985.12 
-3.48950572 92.31447186 1000.14 
-3.48950572 92.76362950 951.23 
-3.48950572 93.21278714 868.14 
-3.48950572 93.66194478 844.55 
-3.48950572 94.11110243 882.04 
-3.48950572 94.56026007 912.84 
-3.48950572 95.00941771 851.29 
-3.48950572 101.29762470 1846.20 
-3.48950572 101.74678234 2036.43 
-3.48950572 103.09425527 1718.16 
-3.48950572 103.54341291 1990.39 
-3.48950572 103.99257055 1776.23 
-3.48950572 104.44172819 1322.62 
-3.48950572 113.87403868 1730.30 
-3.48950572 114.32319632 1972.31 
-3.48950572 114.77235396 1971.05 
-3.48950572 117.91645745 2108.98 
-3.48950572 118.36561510 2822.94 
-3.48950572 118.81477274 2896.12 
-3.48950572 119.26393038 2506.53 
-3.48950572 119.71308802 1826.95 
-3.48950572 120.16224566 2263.44 
-3.48950572 120.61140331 2326.13 
-3.48950572 132.28950200 2259.02 
-3.48950572 132.73865964 3303.52 
-3.48950572 133.18781728 3754.70 
-3.48950572 133.63697493 3777.04 
-3.48950572 134.08613257 3837.97 
-3.48950572 134.53529021 3904.74 
-3.48950572 134.98444785 3344.63 
-3.04034808 -81.06037798 3167.95 
-3.04034808 -80.61122034 3500.67 
-3.04034808 -80.16206269 3845.52 
-3.04034808 -77.91627448 2989.74 
-3.04034808 -77.46711684 4786.59 
-3.04034808 -77.01795920 4690.47 
-3.04034808 -76.56880156 4589.98 
-3.04034808 -76.11964392 4512.32 
-3.04034808 -75.67048627 4471.61 
-3.04034808 -75.22132863 3902.85 
-3.04034808 -74.77217099 3386.16 
-3.04034808 -74.32301335 3124.01 
-3.04034808 -73.87385570 2815.79 
-3.04034808 -73.42469806 2503.78 
-3.04034808 -58.60249587 3766.32 
-3.04034808 -58.15333823 4045.24 
-3.04034808 -57.70418059 4102.20 
-3.04034808 -57.25502295 3984.67 
-3.04034808 -43.78029369 2118.73 
-3.04034808 -43.33113604 2446.73 
-3.04034808 -42.88197840 2354.47 
-3.04034808 -42.43282076 2038.96 
-3.04034808 -41.98366312 1886.18 
-3.04034808 -41.53450548 1837.50 
-3.04034808 -41.08534783 1787.72 
-3.04034808 -40.63619019 1821.71 
-3.04034808 -40.18703255 1504.68 
-3.04034808 -39.73787491 1208.13 
-3.04034808 -39.28871727 1370.92 
-3.04034808 -38.83955962 1855.66 
-3.04034808 -38.39040198 1848.17 
-3.04034808 -37.94124434 1677.50 
-3.04034808 -37.49208670 1571.35 
-3.04034808 -37.04292906 1658.44 
-3.04034808 -36.59377141 1817.42 
-3.04034808 -36.14461377 1962.51 
-3.04034808 -35.69545613 1932.63 
-3.04034808 -35.24629849 1902.44 
-3.04034808 -34.79714085 1872.47 
-3.04034808 -34.34798320 1845.39 
-3.04034808 -33.89882556 1824.74 
-3.04034808 -33.44966792 1813.23 
-3.04034808 -33.00051028 1811.20 
-3.04034808 -32.55135264 1540.02 
-3.04034808 -32.10219499 1364.05 
-3.04034808 -31.65303735 1273.01 
-3.04034808 -31.20387971 1254.85 
-3.04034808 -30.75472207 1250.48 
-3.04034808 -30.30556443 1236.88 
-3.04034808 -29.85640678 1167.71 
-3.04034808 -29.40724914 1033.77 
-3.04034808 5.62704694 965.89 
-3.04034808 6.07620458 1180.12 
-3.04034808 6.52536222 1478.74 
-3.04034808 6.97451987 1833.94 
-3.04034808 7.42367751 1932.17 
-3.04034808 7.87283515 2039.19 
-3.04034808 8.32199279 2154.69 
-3.04034808 8.77115043 2281.16 
-3.04034808 9.22030808 2424.20 
-3.04034808 9.66946572 2592.57 
-3.04034808 10.11862336 2796.60 
-3.04034808 10.56778100 3044.88 
-3.04034808 11.01693864 2402.66 
-3.04034808 19.55093384 3350.43 
-3.04034808 20.00009149 3583.85 
-3.04034808 20.44924913 4114.77 
-3.04034808 20.89840677 4489.30 
-3.04034808 21.34756441 4878.82 
-3.04034808 21.79672205 5093.72 
-3.04034808 22.24587970 5090.88 
-3.04034808 22.69503734 4586.95 
-3.04034808 23.14419498 3622.80 
-3.04034808 24.04251026 3586.72 
-3.04034808 24.49166791 4383.16 
-3.04034808 24.94082555 4423.18 
-3.04034808 25.38998319 3842.45 
-3.04034808 39.31387009 4358.46 
-3.04034808 39.76302774 4519.53 
-3.04034808 40.21218538 3982.53 
-3.04034808 40.66134302 3491.71 
-3.04034808 41.11050066 3076.23 
-3.04034808 41.55965830 2745.50 
-3.04034808 42.00881595 2495.22 
-3.04034808 42.45797359 2314.14 
-3.04034808 42.90713123 2188.53 
-3.04034808 43.35628887 2104.96 
-3.04034808 43.80544651 2051.30 
-3.04034808 44.25460416 2017.05 
-3.04034808 44.70376180 1993.47 
-3.04034808 45.15291944 1973.91 
-3.04034808 45.60207708 1953.82 
-3.04034808 46.05123473 1930.89 
-3.04034808 46.50039237 1904.89 
-3.04034808 46.94955001 1638.18 
-3.04034808 47.39870765 1292.67 
-3.04034808 47.84786529 1180.65 
-3.04034808 48.29702294 1182.92 
-3.04034808 48.74618058 1178.95 
-3.04034808 49.19533822 1028.43 
-3.04034808 49.64449586 897.56 
-3.04034808 50.09365350 911.68 
-3.04034808 50.54281115 968.24 
-3.04034808 50.99196879 979.84 
-3.04034808 51.44112643 981.93 
-3.04034808 51.89028407 970.76 
-3.04034808 52.33944171 945.51 
-3.04034808 52.78859936 897.08 
-3.04034808 79.73805788 1208.08 
-3.04034808 80.18721552 1497.27 
-3.04034808 80.63637316 1582.96 
-3.04034808 81.08553081 1556.24 
-3.04034808 81.53468845 1467.39 
-3.04034808 81.98384609 1286.73 
-3.04034808 82.43300373 1041.61 
-3.04034808 84.22963430 1115.25 
-3.04034808 84.67879194 1399.49 
-3.04034808 85.12794958 1411.87 
-3.04034808 85.57710723 1299.73 
-3.04034808 86.02626487 1178.96 
-3.04034808 86.47542251 1065.89 
-3.04034808 86.92458015 975.04 
-3.04034808 87.37373779 814.67 
-3.04034808 91.41615657 859.55 
-3.04034808 91.86531422 951.71 
-3.04034808 92.31447186 959.88 
-3.04034808 92.76362950 884.86 
-3.04034808 93.21278714 804.34 
-3.04034808 93.66194478 766.49 
-3.04034808 94.11110243 778.82 
-3.04034808 94.56026007 812.61 
-3.04034808 100.39930941 1769.86 
-3.04034808 100.84846706 1921.60 
-3.04034808 102.64509762 1725.35 
-3.04034808 103.09425527 2153.82 
-3.04034808 103.54341291 2185.85 
-3.04034808 103.99257055 1723.56 
-3.04034808 113.87403868 1834.41 
-3.04034808 114.32319632 2335.12 
-3.04034808 114.77235396 2626.82 
-3.04034808 115.22151160 2475.01 
-3.04034808 115.67066924 2243.43 
-3.04034808 116.11982689 1868.29 
-3.04034808 117.91645745 1900.60 
-3.04034808 118.36561510 2912.46 
-3.04034808 118.81477274 2883.75 
-3.04034808 119.26393038 2209.12 
-3.04034808 120.16224566 1521.01 
-3.04034808 120.61140331 1671.12 
-3.04034808 131.84034436 2340.66 
-3.04034808 132.28950200 3155.36 
-3.04034808 132.73865964 3613.25 
-3.04034808 133.18781728 3557.00 
-3.04034808 133.63697493 3575.21 
-3.04034808 134.08613257 3637.78 
-3.04034808 134.53529021 3710.35 
-3.04034808 134.98444785 3180.47 
-3.04034808 135.43360549 1921.25 
-2.59119044 -81.06037798 3130.05 
-2.59119044 -80.61122034 3401.40 
-2.59119044 -80.16206269 3693.02 
-2.59119044 -79.71290505 2507.23 
-2.59119044 -77.46711684 3528.00 
-2.59119044 -77.01795920 4625.24 
-2.59119044 -76.56880156 4546.08 
-2.59119044 -76.11964392 4484.11 
-2.59119044 -75.67048627 4078.39 
-2.59119044 -75.22132863 3503.25 
-2.59119044 -74.77217099 3222.54 
-2.59119044 -74.32301335 3086.11 
-2.59119044 -73.87385570 2738.31 
-2.59119044 -73.42469806 2424.45 
-2.59119044 -57.25502295 3926.57 
-2.59119044 -56.80586531 3898.19 
-2.59119044 -56.35670766 3924.68 
-2.59119044 -49.17018539 2327.35 
-2.59119044 -48.72102775 2548.13 
-2.59119044 -48.27187011 2719.93 
-2.59119044 -47.82271247 1900.92 
-2.59119044 -44.22945133 2217.44 
-2.59119044 -43.78029369 3304.31 
-2.59119044 -43.33113604 3487.89 
-2.59119044 -42.88197840 3380.37 
-2.59119044 -42.43282076 3212.75 
-2.59119044 -41.98366312 3008.31 
